ncols        222
nrows        30
xllcorner    2
yllcorner    156
cellsize     1.000000000000
NODATA_value  0
0 0 0 0 0 0 0 0 0 0 0 0 0 0 0 0 0 0 31.899000167846679688 31.673999786376953125 31.469999313354492188 31.365999221801757812 31.197999954223632812 31.12400054931640625 31.12400054931640625 31.058000564575195312 30.891000747680664062 30.718999862670898438 30.54199981689453125 30.420999526977539062 30.406999588012695312 30.302999496459960938 30.268999099731445312 30.148000717163085938 29.98699951171875 29.822000503540039062 29.690000534057617188 29.590999603271484375 29.461999893188476562 29.378999710083007812 29.336999893188476562 29.187999725341796875 29.184999465942382812 29.122999191284179688 29.04199981689453125 28.997999191284179688 28.965000152587890625 28.936000823974609375 28.961000442504882812 28.882999420166015625 28.908000946044921875 28.815000534057617188 28.816999435424804688 28.794000625610351562 28.759000778198242188 28.756000518798828125 28.738000869750976562 28.702999114990234375 28.670000076293945312 28.607000350952148438 28.51399993896484375 28.476999282836914062 28.440999984741210938 28.378000259399414062 28.375 28.367000579833984375 28.357000350952148438 28.319000244140625 28.301000595092773438 28.252000808715820312 28.170000076293945312 28.087999343872070312 28.141000747680664062 28.187000274658203125 28.197000503540039062 28.243999481201171875 28.34799957275390625 28.417999267578125 28.34600067138671875 28.108999252319335938 28.18000030517578125 28.216999053955078125 28.2089996337890625 28.190999984741210938 28.228000640869140625 28.170000076293945312 28.135000228881835938 28.114000320434570312 28.104000091552734375 28.094999313354492188 28.0970001220703125 28.058000564575195312 27.950000762939453125 27.895999908447265625 27.86100006103515625 27.80699920654296875 27.809000015258789062 27.704000473022460938 27.760999679565429688 27.854000091552734375 27.910999298095703125 27.868000030517578125 27.86100006103515625 27.913999557495117188 27.886999130249023438 27.871999740600585938 27.8899993896484375 27.91500091552734375 27.885999679565429688 27.88899993896484375 27.899999618530273438 27.90200042724609375 27.940000534057617188 27.962999343872070312 27.857999801635742188 27.86100006103515625 27.84799957275390625 27.836999893188476562 27.849000930786132812 27.839000701904296875 27.857000350952148438 27.851999282836914062 27.87400054931640625 27.91699981689453125 27.968000411987304688 28.025999069213867188 28.0839996337890625 28.106000900268554688 28.170000076293945312 28.225000381469726562 28.214000701904296875 28.253000259399414062 28.312999725341796875 28.23699951171875 28.247999191284179688 28.218000411987304688 28.243000030517578125 28.270999908447265625 28.274000167846679688 28.31800079345703125 28.364000320434570312 28.33499908447265625 28.30500030517578125 28.322000503540039062 28.340999603271484375 28.26300048828125 28.135000228881835938 28.256000518798828125 28.381000518798828125 28.447000503540039062 28.497999191284179688 28.572000503540039062 28.66500091552734375 0 0 0 0 0 0 0 0 0 0 0 0 0 0 0 0 0 0 0 0 0 0 0 0 0 0 0 0 0 0 0 0 0 0 0 0 0 0 0 0 0 0 0 0 0 0 0 0 0 0 0 0 0 0 0 0 0 0 0 0 0 0 0 0 0 0 0 0 0
0 0 0 0 0 0 0 0 0 0 0 0 0 0 0 0 0 0 32.023998260498046875 31.815000534057617188 31.608999252319335938 31.399000167846679688 31.275999069213867188 31.200000762939453125 31.1790008544921875 31.142000198364257812 30.91699981689453125 30.767999649047851562 30.628000259399414062 30.552999496459960938 30.4160003662109375 30.409000396728515625 30.323999404907226562 30.170000076293945312 30.01399993896484375 29.858999252319335938 29.715000152587890625 29.563999176025390625 29.495000839233398438 29.436000823974609375 29.30500030517578125 29.309999465942382812 29.197999954223632812 29.22299957275390625 29.141000747680664062 29.090999603271484375 28.957000732421875 28.920000076293945312 28.94499969482421875 28.909999847412109375 28.908000946044921875 28.864000320434570312 28.843999862670898438 28.812999725341796875 28.798000335693359375 28.80500030517578125 28.8209991455078125 28.70800018310546875 28.659999847412109375 28.580999374389648438 28.49900054931640625 28.461999893188476562 28.4459991455078125 28.378999710083007812 28.34799957275390625 28.341999053955078125 28.340000152587890625 28.315000534057617188 28.27899932861328125 28.280000686645507812 28.177999496459960938 28.113000869750976562 28.159000396728515625 28.106000900268554688 28.163000106811523438 28.201999664306640625 28.233999252319335938 28.381999969482421875 28.325000762939453125 28.108999252319335938 28.15399932861328125 28.212999343872070312 28.200000762939453125 28.2089996337890625 28.202999114990234375 28.187000274658203125 28.12400054931640625 28.101999282836914062 28.093999862670898438 28.09600067138671875 28.0709991455078125 28.017000198364257812 27.941999435424804688 27.881999969482421875 27.81999969482421875 27.767000198364257812 27.822999954223632812 27.832000732421875 27.781999588012695312 27.906000137329101562 27.896999359130859375 27.895999908447265625 27.825000762939453125 27.927000045776367188 27.881999969482421875 27.877000808715820312 27.90399932861328125 27.91699981689453125 27.895999908447265625 27.870000839233398438 27.871000289916992188 27.88800048828125 27.927000045776367188 27.95999908447265625 27.826999664306640625 27.825000762939453125 27.819000244140625 27.809000015258789062 27.815999984741210938 27.812999725341796875 27.81800079345703125 27.837999343872070312 27.885000228881835938 27.913000106811523438 28.05500030517578125 28.072999954223632812 28.20800018310546875 28.260999679565429688 28.315999984741210938 28.399000167846679688 28.400999069213867188 28.396999359130859375 28.377000808715820312 28.2910003662109375 28.257999420166015625 28.228000640869140625 28.239999771118164062 28.267000198364257812 28.267000198364257812 28.295999526977539062 28.325000762939453125 28.37599945068359375 28.413999557495117188 28.398000717163085938 28.413999557495117188 28.298000335693359375 28.19499969482421875 28.273000717163085938 28.354000091552734375 28.438999176025390625 28.4850006103515625 28.538999557495117188 28.66500091552734375 0 0 0 0 0 0 0 0 0 0 0 0 0 0 0 0 0 0 0 0 0 0 0 0 0 0 0 0 0 0 0 0 0 0 0 0 0 0 0 0 0 0 0 0 0 0 0 0 0 0 0 0 0 0 0 0 0 0 0 0 0 0 0 0 0 0 0 0 0
0 0 0 0 0 0 0 0 0 0 0 0 0 0 0 0 0 0 32.133998870849609375 31.896999359130859375 31.659999847412109375 31.489000320434570312 31.3339996337890625 31.20800018310546875 31.18000030517578125 31.13800048828125 30.9459991455078125 30.8339996337890625 30.691999435424804688 30.660999298095703125 30.504999160766601562 30.440999984741210938 30.371999740600585938 30.190000534057617188 30.0410003662109375 29.863000869750976562 29.649000167846679688 29.614000320434570312 29.510000228881835938 29.462999343872070312 29.344999313354492188 29.336000442504882812 29.245000839233398438 29.212999343872070312 29.170000076293945312 29.114999771118164062 29.004999160766601562 28.968000411987304688 28.934000015258789062 28.927999496459960938 28.910999298095703125 28.878000259399414062 28.875 28.856000900268554688 28.854999542236328125 28.896999359130859375 28.875 28.7220001220703125 28.642999649047851562 28.569000244140625 28.503000259399414062 28.448999404907226562 28.434999465942382812 28.422000885009765625 28.326999664306640625 28.343999862670898438 28.326000213623046875 28.31999969482421875 28.274000167846679688 28.240999221801757812 28.239000320434570312 28.212999343872070312 28.167999267578125 28.1399993896484375 28.18000030517578125 28.183000564575195312 28.224000930786132812 28.252000808715820312 28.184999465942382812 28.11100006103515625 28.15399932861328125 28.172000885009765625 28.174999237060546875 28.162000656127929688 28.142999649047851562 28.121000289916992188 28.079000473022460938 28.065999984741210938 28.077999114990234375 28.06999969482421875 28.045999526977539062 28.004999160766601562 27.962999343872070312 27.891000747680664062 27.8339996337890625 27.80699920654296875 27.864999771118164062 27.850999832153320312 27.7910003662109375 27.843000411987304688 27.8470001220703125 27.87400054931640625 27.864000320434570312 27.906000137329101562 27.877000808715820312 27.857000350952148438 27.877000808715820312 27.895999908447265625 27.892999649047851562 27.864999771118164062 27.841999053955078125 27.844999313354492188 27.844999313354492188 27.794000625610351562 27.801000595092773438 27.797000885009765625 27.840000152587890625 27.83300018310546875 27.8600006103515625 27.90200042724609375 27.941999435424804688 27.934000015258789062 28.00099945068359375 27.979000091552734375 28.180999755859375 28.243000030517578125 28.316999435424804688 28.391000747680664062 28.34799957275390625 28.385000228881835938 28.381000518798828125 28.377000808715820312 28.378000259399414062 28.297000885009765625 28.268999099731445312 28.239000320434570312 28.23600006103515625 28.26399993896484375 28.26399993896484375 28.288000106811523438 28.316999435424804688 28.34600067138671875 28.384000778198242188 28.424999237060546875 28.461999893188476562 28.367000579833984375 28.218000411987304688 28.239000320434570312 28.36100006103515625 28.410999298095703125 28.474000930786132812 28.52700042724609375 28.61199951171875 0 0 0 0 0 0 0 0 0 0 0 0 0 0 0 0 0 0 0 0 0 0 0 0 0 0 0 0 0 0 0 0 0 0 0 0 0 0 0 0 0 0 0 0 0 0 0 0 0 0 0 0 0 0 0 0 0 0 0 0 0 0 0 0 0 0 0 0 0
0 0 0 0 0 0 0 0 0 0 0 0 0 0 0 0 0 32.2220001220703125 32.0839996337890625 31.94499969482421875 31.726999282836914062 31.5410003662109375 31.37400054931640625 31.268999099731445312 31.211000442504882812 31.107000350952148438 31.017000198364257812 30.927000045776367188 30.756999969482421875 30.669000625610351562 30.599000930786132812 30.5279998779296875 30.4029998779296875 30.225000381469726562 30.0709991455078125 29.895000457763671875 29.680999755859375 29.659000396728515625 29.606000900268554688 29.589000701904296875 29.465999603271484375 29.413999557495117188 29.340999603271484375 29.256999969482421875 29.1959991455078125 29.12400054931640625 29.06800079345703125 28.993999481201171875 29.00099945068359375 28.966999053955078125 28.9290008544921875 28.892999649047851562 28.881999969482421875 28.864000320434570312 28.850000381469726562 28.826999664306640625 28.773000717163085938 28.725000381469726562 28.642999649047851562 28.576999664306640625 28.548000335693359375 28.457000732421875 28.420999526977539062 28.398000717163085938 28.3040008544921875 28.315000534057617188 28.30500030517578125 28.29199981689453125 28.274000167846679688 28.23699951171875 28.247999191284179688 28.215999603271484375 28.184000015258789062 28.176000595092773438 28.174999237060546875 28.16500091552734375 28.1790008544921875 28.16699981689453125 28.114000320434570312 28.107000350952148438 28.100999832153320312 28.11199951171875 28.121000289916992188 28.107000350952148438 28.0709991455078125 28.045000076293945312 28.062999725341796875 28.037000656127929688 28.023000717163085938 28.031999588012695312 27.995000839233398438 28.00099945068359375 27.961999893188476562 27.919000625610351562 27.864000320434570312 27.871000289916992188 27.895000457763671875 27.86199951171875 27.812000274658203125 27.797000885009765625 27.832000732421875 27.8470001220703125 27.872999191284179688 27.881999969482421875 27.871000289916992188 27.843999862670898438 27.850999832153320312 27.868000030517578125 27.87400054931640625 27.854000091552734375 27.8040008544921875 27.857000350952148438 27.812999725341796875 27.785999298095703125 27.832000732421875 27.850999832153320312 27.872999191284179688 27.906999588012695312 27.948999404907226562 27.94300079345703125 27.940999984741210938 27.940000534057617188 28.003000259399414062 28.06999969482421875 28.15399932861328125 28.228000640869140625 28.29000091552734375 28.363000869750976562 28.312999725341796875 28.368999481201171875 28.36199951171875 28.357999801635742188 28.378999710083007812 28.285999298095703125 28.253999710083007812 28.25 28.232999801635742188 28.260000228881835938 28.267000198364257812 28.280000686645507812 28.309000015258789062 28.337999343872070312 28.367000579833984375 28.395999908447265625 28.436000823974609375 28.41699981689453125 28.219999313354492188 28.183000564575195312 28.326000213623046875 28.386999130249023438 28.434000015258789062 28.520000457763671875 28.593999862670898438 28.656999588012695312 0 0 0 0 0 0 0 0 0 0 0 0 0 0 0 0 0 0 0 0 0 0 0 0 0 0 0 0 0 0 0 0 0 0 0 0 0 0 0 0 0 0 0 0 0 0 0 0 0 0 0 0 0 0 0 0 0 0 0 0 0 0 0 0 0 0 0 0
0 0 0 0 0 0 0 0 0 0 0 0 0 0 0 0 0 32.20999908447265625 32.116001129150390625 31.965000152587890625 31.725999832153320312 31.524999618530273438 31.40399932861328125 31.298000335693359375 31.22100067138671875 31.156999588012695312 30.969999313354492188 30.97299957275390625 30.878999710083007812 30.733999252319335938 30.614999771118164062 30.517999649047851562 30.409999847412109375 30.274999618530273438 30.118000030517578125 29.906000137329101562 29.840999603271484375 29.74900054931640625 29.677999496459960938 29.608999252319335938 29.54199981689453125 29.468999862670898438 29.393999099731445312 29.298000335693359375 29.202999114990234375 29.1529998779296875 29.093000411987304688 29.0970001220703125 29.042999267578125 28.975999832153320312 28.94499969482421875 28.923999786376953125 28.88800048828125 28.840999603271484375 28.844999313354492188 28.752000808715820312 28.72100067138671875 28.690000534057617188 28.632999420166015625 28.58499908447265625 28.507999420166015625 28.468000411987304688 28.406999588012695312 28.384000778198242188 28.31999969482421875 28.27899932861328125 28.274000167846679688 28.267999649047851562 28.24900054931640625 28.219999313354492188 28.207000732421875 28.204000473022460938 28.191999435424804688 28.18199920654296875 28.1790008544921875 28.177999496459960938 28.177000045776367188 28.118999481201171875 28.091999053955078125 28.08499908447265625 28.06999969482421875 28.058000564575195312 28.0709991455078125 28.062000274658203125 28.037000656127929688 28.04000091552734375 28.002000808715820312 27.979999542236328125 27.97100067138671875 27.965999603271484375 27.938999176025390625 27.969999313354492188 27.9850006103515625 27.938999176025390625 27.90200042724609375 27.912000656127929688 27.922000885009765625 27.87400054931640625 27.832000732421875 27.827999114990234375 27.829999923706054688 27.84600067138671875 27.827999114990234375 27.843999862670898438 27.849000930786132812 27.836999893188476562 27.867000579833984375 27.850000381469726562 27.905000686645507812 27.91500091552734375 27.896999359130859375 27.891000747680664062 27.95800018310546875 27.886999130249023438 27.941999435424804688 27.934999465942382812 27.9290008544921875 27.922000885009765625 27.9290008544921875 27.937000274658203125 27.934999465942382812 27.934000015258789062 27.978000640869140625 28.042999267578125 28.128000259399414062 28.197000503540039062 28.261999130249023438 28.336000442504882812 28.3040008544921875 28.329999923706054688 28.341999053955078125 28.337999343872070312 28.371000289916992188 28.275999069213867188 28.228000640869140625 28.260999679565429688 28.231000900268554688 28.256999969482421875 28.243000030517578125 28.273000717163085938 28.302000045776367188 28.330999374389648438 28.358999252319335938 28.38800048828125 28.41699981689453125 28.422000885009765625 28.252000808715820312 28.173000335693359375 28.284000396728515625 28.405000686645507812 28.440000534057617188 28.524999618530273438 28.614999771118164062 28.662000656127929688 0 0 0 0 0 0 0 0 0 0 0 0 0 0 0 0 0 0 0 0 0 0 0 0 0 0 0 0 0 0 0 0 0 0 0 0 0 0 0 0 0 0 0 0 0 0 0 0 0 0 0 0 0 0 0 0 0 0 0 0 0 0 0 0 0 0 0 0
0 0 0 0 0 0 0 0 0 0 0 0 0 0 0 0 0 32.2050018310546875 32.146999359130859375 31.94499969482421875 31.7220001220703125 31.552000045776367188 31.405000686645507812 31.326999664306640625 31.260000228881835938 31.155000686645507812 31.02899932861328125 31.0279998779296875 30.898000717163085938 30.805999755859375 30.649000167846679688 30.520000457763671875 30.340999603271484375 30.2779998779296875 30.197000503540039062 29.9720001220703125 29.895999908447265625 29.795000076293945312 29.73600006103515625 29.65200042724609375 29.572999954223632812 29.489999771118164062 29.413000106811523438 29.323999404907226562 29.229000091552734375 29.24900054931640625 29.145999908447265625 29.079999923706054688 29.024000167846679688 28.9589996337890625 28.937000274658203125 28.878999710083007812 28.812000274658203125 28.805999755859375 28.832000732421875 28.802000045776367188 28.7089996337890625 28.615999221801757812 28.55500030517578125 28.405000686645507812 28.316999435424804688 28.48600006103515625 28.4029998779296875 28.365999221801757812 28.339000701904296875 28.256000518798828125 28.245000839233398438 28.246000289916992188 28.232999801635742188 28.197000503540039062 28.177999496459960938 28.177999496459960938 28.170999526977539062 28.135999679565429688 28.142000198364257812 28.131000518798828125 28.13800048828125 28.117000579833984375 28.11199951171875 28.073999404907226562 28.052999496459960938 28.049999237060546875 28.006000518798828125 27.990999221801757812 27.981000900268554688 27.964000701904296875 27.940000534057617188 27.9459991455078125 27.924999237060546875 27.91699981689453125 27.899999618530273438 27.886999130249023438 27.923000335693359375 27.877000808715820312 27.8600006103515625 27.857999801635742188 27.871000289916992188 27.8600006103515625 27.827999114990234375 27.857999801635742188 27.871999740600585938 27.812999725341796875 27.870000839233398438 27.906999588012695312 27.950000762939453125 28.023000717163085938 28.038999557495117188 28.058000564575195312 28.108999252319335938 28.058000564575195312 27.979000091552734375 27.906000137329101562 27.8899993896484375 27.872999191284179688 27.937999725341796875 27.930999755859375 27.923999786376953125 27.91699981689453125 27.912000656127929688 27.93000030517578125 27.9290008544921875 27.927000045776367188 27.9459991455078125 28.007999420166015625 28.100999832153320312 28.176000595092773438 28.2350006103515625 28.308000564575195312 28.322000503540039062 28.294000625610351562 28.322999954223632812 28.319000244140625 28.339000701904296875 28.268999099731445312 28.232000350952148438 28.259000778198242188 28.242000579833984375 28.253000259399414062 28.243999481201171875 28.2649993896484375 28.294000625610351562 28.322999954223632812 28.351999282836914062 28.381000518798828125 28.409999847412109375 28.462999343872070312 28.350000381469726562 28.177000045776367188 28.25 28.378999710083007812 28.412000656127929688 28.489000320434570312 28.6399993896484375 28.686000823974609375 0 0 0 0 0 0 0 0 0 0 0 0 0 0 0 0 0 0 0 0 0 0 0 0 0 0 0 0 0 0 0 0 0 0 0 0 0 0 0 0 0 0 0 0 0 0 0 0 0 0 0 0 0 0 0 0 0 0 0 0 0 0 0 0 0 0 0 0
0 0 0 0 0 0 0 0 0 0 0 0 0 0 0 0 0 32.1360015869140625 32.092998504638671875 31.952999114990234375 31.690000534057617188 31.548999786376953125 31.462999343872070312 31.408000946044921875 31.23699951171875 31.089000701904296875 30.9459991455078125 30.906000137329101562 30.746000289916992188 30.767000198364257812 30.6660003662109375 30.51399993896484375 30.364999771118164062 30.229999542236328125 30.148000717163085938 29.969999313354492188 29.881999969482421875 29.872999191284179688 29.788999557495117188 29.702999114990234375 29.627000808715820312 29.517999649047851562 29.422000885009765625 29.357000350952148438 29.284000396728515625 29.23699951171875 29.177999496459960938 29.075000762939453125 28.920000076293945312 28.892999649047851562 28.84799957275390625 28.808000564575195312 28.792999267578125 28.746999740600585938 28.738000869750976562 28.836999893188476562 28.759000778198242188 28.6660003662109375 28.559000015258789062 28.393999099731445312 28.34799957275390625 28.45999908447265625 28.3899993896484375 28.37599945068359375 28.3339996337890625 28.228000640869140625 28.225000381469726562 28.215000152587890625 28.205999374389648438 28.190000534057617188 28.173999786376953125 28.155000686645507812 28.145999908447265625 28.173000335693359375 28.13800048828125 28.257999420166015625 28.226999282836914062 28.167999267578125 28.048999786376953125 28.042999267578125 28.018999099731445312 28.017000198364257812 27.975999832153320312 27.948999404907226562 27.950000762939453125 27.920999526977539062 27.909000396728515625 27.908000946044921875 27.878999710083007812 27.853000640869140625 27.829999923706054688 27.771999359130859375 27.81999969482421875 27.809999465942382812 27.84799957275390625 27.832000732421875 27.843000411987304688 27.864000320434570312 27.927000045776367188 27.978000640869140625 27.968000411987304688 27.95999908447265625 27.938999176025390625 27.982999801635742188 28.094999313354492188 28.077999114990234375 28.062000274658203125 28.059000015258789062 28.094999313354492188 28.0540008544921875 27.975000381469726562 27.906000137329101562 27.891000747680664062 27.87400054931640625 27.922000885009765625 27.926000595092773438 27.919000625610351562 27.913000106811523438 27.893999099731445312 27.923999786376953125 27.922000885009765625 27.920999526977539062 27.908000946044921875 27.97299957275390625 28.075000762939453125 28.155000686645507812 28.207000732421875 28.281000137329101562 28.315999984741210938 28.260000228881835938 28.312000274658203125 28.298999786376953125 28.309999465942382812 28.266000747680664062 28.231000900268554688 28.233999252319335938 28.253000259399414062 28.25 28.245000839233398438 28.256999969482421875 28.285999298095703125 28.315000534057617188 28.343999862670898438 28.372999191284179688 28.378000259399414062 28.469999313354492188 28.386999130249023438 28.18000030517578125 28.215000152587890625 28.340999603271484375 28.440999984741210938 28.520000457763671875 28.635000228881835938 28.70999908447265625 0 0 0 0 0 0 0 0 0 0 0 0 0 0 0 0 0 0 0 0 0 0 0 0 0 0 0 0 0 0 0 0 0 0 0 0 0 0 0 0 0 0 0 0 0 0 0 0 0 0 0 0 0 0 0 0 0 0 0 0 0 0 0 0 0 0 0 0
0 0 0 0 0 0 0 0 0 0 0 0 0 0 0 0 0 32.020000457763671875 31.981000900268554688 31.868999481201171875 31.687000274658203125 31.613000869750976562 31.587999343872070312 31.493000030517578125 31.2220001220703125 31.082000732421875 30.954000473022460938 30.858999252319335938 30.8209991455078125 30.756999969482421875 30.621000289916992188 30.545999526977539062 30.396999359130859375 30.270999908447265625 30.163000106811523438 30.062000274658203125 29.9459991455078125 29.872999191284179688 29.839000701904296875 29.760000228881835938 29.68199920654296875 29.600999832153320312 29.58499908447265625 29.437000274658203125 29.25099945068359375 29.104000091552734375 29.05500030517578125 29.002000808715820312 28.875 28.829999923706054688 28.757999420166015625 28.73600006103515625 28.72100067138671875 28.673999786376953125 28.642999649047851562 28.76399993896484375 28.809999465942382812 28.715999603271484375 28.573999404907226562 28.4589996337890625 28.483999252319335938 28.468000411987304688 28.406999588012695312 28.379999160766601562 28.316999435424804688 28.273000717163085938 28.191999435424804688 28.176000595092773438 28.177999496459960938 28.16699981689453125 28.149999618530273438 28.135999679565429688 28.2220001220703125 28.204000473022460938 28.183000564575195312 28.229999542236328125 28.232999801635742188 28.18000030517578125 28.099000930786132812 28.037000656127929688 27.975999832153320312 27.965999603271484375 27.926000595092773438 27.90399932861328125 27.90399932861328125 27.875 27.871000289916992188 27.850999832153320312 27.854000091552734375 27.84600067138671875 27.84799957275390625 27.825000762939453125 27.802000045776367188 27.840000152587890625 27.83300018310546875 27.923999786376953125 27.927000045776367188 27.864000320434570312 27.922000885009765625 27.94300079345703125 27.966999053955078125 27.990999221801757812 28.055999755859375 28.018999099731445312 28.082000732421875 28.065999984741210938 28.048999786376953125 28.038000106811523438 28.073999404907226562 28.051000595092773438 27.97100067138671875 27.906000137329101562 27.892000198364257812 27.875 27.87599945068359375 27.922000885009765625 27.91500091552734375 27.908000946044921875 27.892999649047851562 27.905000686645507812 27.9160003662109375 27.91500091552734375 27.90200042724609375 27.947999954223632812 28.048000335693359375 28.132999420166015625 28.202999114990234375 28.253999710083007812 28.294000625610351562 28.225000381469726562 28.29199981689453125 28.280000686645507812 28.285999298095703125 28.261999130249023438 28.219999313354492188 28.20800018310546875 28.26399993896484375 28.246000289916992188 28.246999740600585938 28.254999160766601562 28.27899932861328125 28.308000564575195312 28.336000442504882812 28.354999542236328125 28.385000228881835938 28.474000930786132812 28.3600006103515625 28.188999176025390625 28.23699951171875 28.340999603271484375 28.436000823974609375 28.524999618530273438 28.618999481201171875 28.715999603271484375 0 0 0 0 0 0 0 0 0 0 0 0 0 0 0 0 0 0 0 0 0 0 0 0 0 0 0 0 0 0 0 0 0 0 0 0 0 0 0 0 0 0 0 0 0 0 0 0 0 0 0 0 0 0 0 0 0 0 0 0 0 0 0 0 0 0 0 0
0 0 0 0 0 0 0 0 0 0 0 0 0 0 0 0 0 31.9029998779296875 31.906000137329101562 31.802000045776367188 31.716999053955078125 31.66500091552734375 31.635000228881835938 31.464000701904296875 31.218000411987304688 31.131000518798828125 30.975999832153320312 30.857000350952148438 30.808000564575195312 30.72100067138671875 30.62400054931640625 30.520999908447265625 30.396999359130859375 30.295999526977539062 30.197999954223632812 30.107999801635742188 30.006000518798828125 29.976999282836914062 29.924999237060546875 29.867000579833984375 29.854000091552734375 29.81999969482421875 29.702999114990234375 29.5 29.295999526977539062 29.093000411987304688 28.968999862670898438 28.88899993896484375 28.870000839233398438 28.745000839233398438 28.6790008544921875 28.663999557495117188 28.649000167846679688 28.634000778198242188 28.600000381469726562 28.669000625610351562 28.79000091552734375 28.767000198364257812 28.61100006103515625 28.447999954223632812 28.450000762939453125 28.440999984741210938 28.43000030517578125 28.357000350952148438 28.312000274658203125 28.281000137329101562 28.172000885009765625 28.16699981689453125 28.16699981689453125 28.150999069213867188 28.128999710083007812 28.107000350952148438 28.134000778198242188 28.149000167846679688 28.135000228881835938 28.076999664306640625 28.100999832153320312 28.075000762939453125 28.062000274658203125 28.047000885009765625 27.933000564575195312 27.906999588012695312 27.910999298095703125 27.90200042724609375 27.88899993896484375 27.892999649047851562 27.864999771118164062 27.882999420166015625 27.857999801635742188 27.843000411987304688 27.849000930786132812 27.87400054931640625 27.865999221801757812 27.910999298095703125 27.961000442504882812 27.687999725341796875 27.613000869750976562 27.659999847412109375 27.913999557495117188 27.937999725341796875 27.962999343872070312 27.98699951171875 28.044000625610351562 28.042999267578125 28.063999176025390625 28.052999496459960938 28.037000656127929688 28.020000457763671875 28.0540008544921875 28.047000885009765625 27.968000411987304688 27.906999588012695312 27.892000198364257812 27.87599945068359375 27.870000839233398438 27.91699981689453125 27.909999847412109375 27.90399932861328125 27.899999618530273438 27.879999160766601562 27.909999847412109375 27.908000946044921875 27.896999359130859375 27.922000885009765625 28.016000747680664062 28.106000900268554688 28.201000213623046875 28.225999832153320312 28.273000717163085938 28.211000442504882812 28.253000259399414062 28.260999679565429688 28.261999130249023438 28.253999710083007812 28.20999908447265625 28.18199920654296875 28.239000320434570312 28.245000839233398438 28.247999191284179688 28.2350006103515625 28.270999908447265625 28.299999237060546875 28.329000473022460938 28.315999984741210938 28.391000747680664062 28.357000350952148438 28.329000473022460938 28.215999603271484375 28.215999603271484375 28.315999984741210938 28.412000656127929688 28.524000167846679688 28.59799957275390625 28.687000274658203125 28.718999862670898438 0 0 0 0 0 0 0 0 0 0 0 0 0 0 0 0 0 0 0 0 0 0 0 0 0 0 0 0 0 0 0 0 0 0 0 0 0 0 0 0 0 0 0 0 0 0 0 0 0 0 0 0 0 0 0 0 0 0 0 0 0 0 0 0 0 0 0
0 0 0 0 0 0 0 0 0 0 0 0 0 0 0 0 0 31.823999404907226562 31.822000503540039062 31.746000289916992188 31.875 31.632999420166015625 31.565000534057617188 31.396999359130859375 31.246000289916992188 31.20800018310546875 31.045999526977539062 30.957000732421875 30.83499908447265625 30.631000518798828125 30.620000839233398438 30.524000167846679688 30.4589996337890625 30.327999114990234375 30.201999664306640625 30.135000228881835938 30.19300079345703125 30.076000213623046875 30.031999588012695312 30.020999908447265625 30.108999252319335938 29.990999221801757812 29.732000350952148438 29.510999679565429688 29.29000091552734375 29.06800079345703125 28.893999099731445312 28.863000869750976562 28.839000701904296875 28.739000320434570312 28.607000350952148438 28.591999053955078125 28.576999664306640625 28.562000274658203125 28.537000656127929688 28.575000762939453125 28.6959991455078125 28.815000534057617188 28.6529998779296875 28.38899993896484375 28.4160003662109375 28.410999298095703125 28.378000259399414062 28.327999114990234375 28.301000595092773438 28.267000198364257812 28.18000030517578125 28.141000747680664062 28.142999649047851562 28.12599945068359375 28.106000900268554688 28.08499908447265625 28.089000701904296875 28.100999832153320312 28.052000045776367188 27.982000350952148438 27.968000411987304688 27.9720001220703125 27.954000473022460938 27.930999755859375 27.920999526977539062 27.922000885009765625 27.905000686645507812 27.924999237060546875 27.91500091552734375 27.905000686645507812 27.872999191284179688 27.864999771118164062 27.853000640869140625 27.857999801635742188 27.86199951171875 27.854000091552734375 27.872999191284179688 27.9459991455078125 27.535999298095703125 27.228000640869140625 27.16500091552734375 27.58499908447265625 27.913999557495117188 27.934000015258789062 27.95800018310546875 27.982000350952148438 28.034000396728515625 28.047000885009765625 28.045999526977539062 28.04000091552734375 28.024000167846679688 28.007999420166015625 28.033000946044921875 28.042999267578125 27.964000701904296875 27.906999588012695312 27.885000228881835938 27.877000808715820312 27.868000030517578125 27.90200042724609375 27.906000137329101562 27.899000167846679688 27.906999588012695312 27.86199951171875 27.9029998779296875 27.90200042724609375 27.892000198364257812 27.895000457763671875 27.979999542236328125 28.079999923706054688 28.200000762939453125 28.198999404907226562 28.25099945068359375 28.22299957275390625 28.214000701904296875 28.24900054931640625 28.238000869750976562 28.245000839233398438 28.198999404907226562 28.173000335693359375 28.212999343872070312 28.256000518798828125 28.24900054931640625 28.20800018310546875 28.26300048828125 28.29199981689453125 28.294000625610351562 28.30699920654296875 28.329999923706054688 28.385999679565429688 28.332000732421875 28.229999542236328125 28.187999725341796875 28.330999374389648438 28.406000137329101562 28.496999740600585938 28.579000473022460938 28.677999496459960938 28.698999404907226562 0 0 0 0 0 0 0 0 0 0 0 0 0 0 0 0 0 0 0 0 0 0 0 0 0 0 0 0 0 0 0 0 0 0 0 0 0 0 0 0 0 0 0 0 0 0 0 0 0 0 0 0 0 0 0 0 0 0 0 0 0 0 0 0 0 0 0
0 0 0 0 0 0 0 0 0 0 0 0 0 0 0 0 31.732000350952148438 31.771999359130859375 31.74900054931640625 31.767999649047851562 31.740999221801757812 31.524000167846679688 31.427000045776367188 31.357000350952148438 31.288999557495117188 31.2089996337890625 31.132999420166015625 30.933000564575195312 30.798999786376953125 30.702999114990234375 30.590999603271484375 30.565000534057617188 30.531999588012695312 30.395000457763671875 30.36100006103515625 30.4290008544921875 30.295999526977539062 30.163000106811523438 30.13899993896484375 30.148000717163085938 30.19300079345703125 30.075000762939453125 29.829999923706054688 29.54000091552734375 29.260000228881835938 29.038999557495117188 28.8600006103515625 28.899000167846679688 28.8339996337890625 28.731000900268554688 28.670000076293945312 28.580999374389648438 28.525999069213867188 28.489999771118164062 28.475000381469726562 28.479999542236328125 28.600999832153320312 28.5410003662109375 28.466999053955078125 28.372999191284179688 28.385000228881835938 28.3899993896484375 28.365999221801757812 28.339000701904296875 28.288000106811523438 28.246000289916992188 28.198999404907226562 28.118999481201171875 28.11199951171875 28.114999771118164062 28.107999801635742188 28.06999969482421875 28.059000015258789062 28.047000885009765625 27.983999252319335938 27.927999496459960938 27.934000015258789062 27.920000076293945312 27.920999526977539062 27.924999237060546875 27.930999755859375 27.940999984741210938 27.948999404907226562 27.93199920654296875 27.926000595092773438 27.899000167846679688 27.885999679565429688 27.872999191284179688 27.863000869750976562 27.878000259399414062 27.872999191284179688 27.84600067138671875 27.868000030517578125 27.757999420166015625 26.841999053955078125 26.767000198364257812 27.143999099731445312 27.510999679565429688 27.878000259399414062 27.9290008544921875 27.952999114990234375 27.976999282836914062 28.0279998779296875 28.045999526977539062 28.017999649047851562 28.024000167846679688 28.010999679565429688 27.995000839233398438 28.01300048828125 28.038999557495117188 27.95999908447265625 27.906999588012695312 27.884000778198242188 27.878999710083007812 27.867000579833984375 27.870000839233398438 27.900999069213867188 27.895000457763671875 27.906999588012695312 27.84600067138671875 27.88800048828125 27.895999908447265625 27.886999130249023438 27.868000030517578125 27.944000244140625 28.0540008544921875 28.197000503540039062 28.1790008544921875 28.229999542236328125 28.231000900268554688 28.174999237060546875 28.24900054931640625 28.218000411987304688 28.23699951171875 28.187999725341796875 28.16500091552734375 28.187999725341796875 28.243999481201171875 28.25 28.204000473022460938 28.256000518798828125 28.273000717163085938 28.256000518798828125 28.284000396728515625 28.2779998779296875 28.381999969482421875 28.305999755859375 28.231000900268554688 28.245000839233398438 28.292999267578125 28.357999801635742188 28.51300048828125 28.530000686645507812 28.634000778198242188 28.6959991455078125 0 0 0 0 0 0 0 0 0 0 0 0 0 0 0 0 0 0 0 0 0 0 0 0 0 0 0 0 0 0 0 0 0 0 0 0 0 0 0 0 0 0 0 0 0 0 0 0 0 0 0 0 0 0 0 0 0 0 0 0 0 0 0 0 0 0 0
0 0 0 0 0 0 0 0 0 0 0 0 0 0 0 0 31.620000839233398438 31.629999160766601562 31.66699981689453125 31.677999496459960938 31.586000442504882812 31.424999237060546875 31.405000686645507812 31.316999435424804688 31.26399993896484375 31.177999496459960938 31.051000595092773438 30.948999404907226562 30.871999740600585938 30.746000289916992188 30.683000564575195312 30.620000839233398438 30.52899932861328125 30.516000747680664062 30.590000152587890625 30.548999786376953125 30.38899993896484375 30.252000808715820312 30.23600006103515625 30.2350006103515625 30.211999893188476562 30.160999298095703125 29.944000244140625 29.65399932861328125 29.385999679565429688 29.093000411987304688 28.968999862670898438 28.908000946044921875 28.822000503540039062 28.72100067138671875 28.676000595092773438 28.63800048828125 28.569000244140625 28.488000869750976562 28.4459991455078125 28.386999130249023438 28.378999710083007812 28.381000518798828125 28.375 28.378000259399414062 28.38899993896484375 28.38800048828125 28.371000289916992188 28.350999832153320312 28.27700042724609375 28.225000381469726562 28.184999465942382812 28.12400054931640625 28.075000762939453125 28.0839996337890625 28.063999176025390625 28.063999176025390625 28.034999847412109375 27.99900054931640625 27.97100067138671875 27.9589996337890625 27.926000595092773438 27.923999786376953125 27.930999755859375 27.913000106811523438 27.909999847412109375 27.933000564575195312 27.947000503540039062 27.93000030517578125 27.927999496459960938 27.940000534057617188 27.8899993896484375 27.864999771118164062 27.850000381469726562 27.8470001220703125 27.840999603271484375 27.836999893188476562 27.837999343872070312 26.979999542236328125 26.381999969482421875 26.648000717163085938 27.069000244140625 27.436000823974609375 27.802999496459960938 27.923999786376953125 27.947999954223632812 27.9720001220703125 28.020999908447265625 28.033000946044921875 27.976999282836914062 28.006000518798828125 27.99900054931640625 27.982000350952148438 27.993000030517578125 28.025999069213867188 27.955999374389648438 27.908000946044921875 27.885000228881835938 27.878999710083007812 27.864999771118164062 27.868000030517578125 27.896999359130859375 27.8899993896484375 27.90200042724609375 27.853000640869140625 27.863000869750976562 27.88899993896484375 27.881000518798828125 27.863000869750976562 27.909000396728515625 28.024000167846679688 28.156999588012695312 28.177999496459960938 28.20800018310546875 28.20999908447265625 28.136999130249023438 28.215000152587890625 28.197999954223632812 28.233999252319335938 28.177000045776367188 28.15399932861328125 28.162000656127929688 28.218000411987304688 28.252000808715820312 28.204999923706054688 28.247999191284179688 28.233999252319335938 28.215000152587890625 28.228000640869140625 28.298999786376953125 28.409000396728515625 28.295000076293945312 28.219999313354492188 28.270999908447265625 28.288000106811523438 28.379999160766601562 28.436000823974609375 28.496999740600585938 28.5839996337890625 28.62599945068359375 28.655000686645507812 0 0 0 0 0 0 0 0 0 0 0 0 0 0 0 0 0 0 0 0 0 0 0 0 0 0 0 0 0 0 0 0 0 0 0 0 0 0 0 0 0 0 0 0 0 0 0 0 0 0 0 0 0 0 0 0 0 0 0 0 0 0 0 0 0 0
0 0 0 0 0 0 0 0 0 0 0 0 0 0 0 0 31.502000808715820312 31.518999099731445312 31.569000244140625 31.5709991455078125 31.51399993896484375 31.43000030517578125 31.336000442504882812 31.274000167846679688 31.229999542236328125 31.15200042724609375 31.101999282836914062 31.047000885009765625 30.947000503540039062 30.81800079345703125 30.77899932861328125 30.725000381469726562 30.676000595092773438 30.628999710083007812 30.62599945068359375 30.551000595092773438 30.417999267578125 30.312000274658203125 30.287000656127929688 30.253999710083007812 30.2350006103515625 30.211999893188476562 30.118000030517578125 29.920000076293945312 29.594999313354492188 29.406000137329101562 29.038000106811523438 28.900999069213867188 28.830999374389648438 28.718999862670898438 28.622999191284179688 28.620000839233398438 28.599000930786132812 28.489000320434570312 28.451999664306640625 28.354000091552734375 28.288999557495117188 28.379999160766601562 28.371999740600585938 28.354999542236328125 28.393999099731445312 28.408000946044921875 28.4290008544921875 28.381999969482421875 28.2649993896484375 28.207000732421875 28.15399932861328125 28.128999710083007812 28.034000396728515625 28.037000656127929688 28.0279998779296875 28.047000885009765625 28.017000198364257812 28.002000808715820312 28.010999679565429688 27.961999893188476562 27.898000717163085938 27.913999557495117188 27.909000396728515625 27.913000106811523438 27.920000076293945312 27.940999984741210938 27.926000595092773438 27.937999725341796875 27.920999526977539062 27.922000885009765625 27.8899993896484375 27.86100006103515625 27.84799957275390625 27.840999603271484375 27.8470001220703125 27.815999984741210938 27.830999374389648438 26.201999664306640625 26.128000259399414062 26.628000259399414062 26.995000839233398438 27.36100006103515625 27.728000640869140625 27.927000045776367188 27.944000244140625 27.968000411987304688 28.002000808715820312 28.020999908447265625 27.936000823974609375 27.988000869750976562 27.983999252319335938 27.969999313354492188 27.9720001220703125 28.004999160766601562 27.951999664306640625 27.908000946044921875 27.885000228881835938 27.872999191284179688 27.864000320434570312 27.865999221801757812 27.881000518798828125 27.885000228881835938 27.896999359130859375 27.86100006103515625 27.836999893188476562 27.882999420166015625 27.87599945068359375 27.857999801635742188 27.872999191284179688 27.988000869750976562 28.117000579833984375 28.176000595092773438 28.187000274658203125 28.188999176025390625 28.117000579833984375 28.176000595092773438 28.187000274658203125 28.207000732421875 28.16699981689453125 28.142999649047851562 28.142999649047851562 28.232999801635742188 28.25 28.243999481201171875 28.254999160766601562 28.225000381469726562 28.245000839233398438 28.2350006103515625 28.239999771118164062 28.3600006103515625 28.26399993896484375 28.197999954223632812 28.288999557495117188 28.31800079345703125 28.363000869750976562 28.395000457763671875 28.457000732421875 28.520999908447265625 28.565999984741210938 28.606000900268554688 0 0 0 0 0 0 0 0 0 0 0 0 0 0 0 0 0 0 0 0 0 0 0 0 0 0 0 0 0 0 0 0 0 0 0 0 0 0 0 0 0 0 0 0 0 0 0 0 0 0 0 0 0 0 0 0 0 0 0 0 0 0 0 0 0 0
0 0 0 0 0 0 0 0 0 0 0 0 0 0 0 0 31.520999908447265625 31.5149993896484375 31.43199920654296875 31.448999404907226562 31.437000274658203125 31.423000335693359375 31.309000015258789062 31.253000259399414062 31.257999420166015625 31.25099945068359375 31.191999435424804688 31.131000518798828125 30.978000640869140625 30.849000930786132812 30.757999420166015625 30.739999771118164062 30.7089996337890625 30.670999526977539062 30.62400054931640625 30.531999588012695312 30.412000656127929688 30.34600067138671875 30.30699920654296875 30.275999069213867188 30.260999679565429688 30.20999908447265625 30.11199951171875 29.992000579833984375 29.81800079345703125 29.628999710083007812 29.150999069213867188 28.968999862670898438 28.809000015258789062 28.711000442504882812 28.59799957275390625 28.607999801635742188 28.5540008544921875 28.479000091552734375 28.417999267578125 28.40200042724609375 28.3470001220703125 28.31999969482421875 28.33300018310546875 28.349000930786132812 28.385000228881835938 28.41500091552734375 28.423999786376953125 28.370000839233398438 28.294000625610351562 28.173999786376953125 28.145000457763671875 28.127000808715820312 28.047000885009765625 28.031999588012695312 28.003000259399414062 28.006999969482421875 27.966999053955078125 27.965999603271484375 27.968000411987304688 27.95999908447265625 27.913000106811523438 27.913999557495117188 27.913000106811523438 27.920000076293945312 27.933000564575195312 27.922000885009765625 27.930999755859375 27.920999526977539062 27.899999618530273438 27.8899993896484375 27.864999771118164062 27.826999664306640625 27.826000213623046875 27.840000152587890625 27.830999374389648438 27.80500030517578125 27.815999984741210938 25.697999954223632812 26.163000106811523438 26.552999496459960938 26.920000076293945312 27.287000656127929688 27.65399932861328125 27.93199920654296875 27.938999176025390625 27.962999343872070312 27.983999252319335938 28.007999420166015625 27.95999908447265625 27.969999313354492188 27.965999603271484375 27.957000732421875 27.951999664306640625 27.9850006103515625 27.948999404907226562 27.909000396728515625 27.885999679565429688 27.865999221801757812 27.864999771118164062 27.864000320434570312 27.867000579833984375 27.881000518798828125 27.892000198364257812 27.868000030517578125 27.812999725341796875 27.871000289916992188 27.870000839233398438 27.853000640869140625 27.841999053955078125 27.952999114990234375 28.076999664306640625 28.174999237060546875 28.163000106811523438 28.16699981689453125 28.125 28.173999786376953125 28.186000823974609375 28.162000656127929688 28.142999649047851562 28.163000106811523438 28.197000503540039062 28.197999954223632812 28.20800018310546875 28.2350006103515625 28.224000930786132812 28.226999282836914062 28.23699951171875 28.239000320434570312 28.240999221801757812 28.298000335693359375 28.26300048828125 28.2350006103515625 28.243999481201171875 28.275999069213867188 28.326999664306640625 28.34600067138671875 28.395999908447265625 28.454999923706054688 28.510999679565429688 28.544000625610351562 28.587999343872070312 0 0 0 0 0 0 0 0 0 0 0 0 0 0 0 0 0 0 0 0 0 0 0 0 0 0 0 0 0 0 0 0 0 0 0 0 0 0 0 0 0 0 0 0 0 0 0 0 0 0 0 0 0 0 0 0 0 0 0 0 0 0 0 0 0
0 0 0 0 0 0 0 0 0 0 0 0 0 0 0 0 31.524999618530273438 31.437999725341796875 31.434000015258789062 31.422000885009765625 31.336999893188476562 31.326000213623046875 31.284000396728515625 31.292999267578125 31.2910003662109375 31.256999969482421875 31.191999435424804688 31.173000335693359375 31.01399993896484375 30.836999893188476562 30.771999359130859375 30.7220001220703125 30.711999893188476562 30.648000717163085938 30.593999862670898438 30.561000823974609375 30.406000137329101562 30.371999740600585938 30.313999176025390625 30.27899932861328125 30.256000518798828125 30.211000442504882812 30.1100006103515625 30.003999710083007812 29.9160003662109375 29.739999771118164062 29.4160003662109375 29.004999160766601562 28.895000457763671875 28.746000289916992188 28.697999954223632812 28.642999649047851562 28.56999969482421875 28.465999603271484375 28.386999130249023438 28.395000457763671875 28.3600006103515625 28.316999435424804688 28.327999114990234375 28.350999832153320312 28.37599945068359375 28.385999679565429688 28.36199951171875 28.30699920654296875 28.281000137329101562 28.159000396728515625 28.121000289916992188 28.099000930786132812 28.063999176025390625 27.981000900268554688 27.975000381469726562 27.982000350952148438 27.9720001220703125 27.937000274658203125 27.924999237060546875 27.93199920654296875 27.8899993896484375 27.934000015258789062 27.90399932861328125 27.909999847412109375 27.91500091552734375 27.909000396728515625 27.919000625610351562 27.912000656127929688 27.910999298095703125 27.899000167846679688 27.875 27.851999282836914062 27.832000732421875 27.83499908447265625 27.80500030517578125 27.822000503540039062 27.815999984741210938 26.354000091552734375 26.11199951171875 26.479000091552734375 26.844999313354492188 27.211999893188476562 27.579000473022460938 27.940000534057617188 27.936000823974609375 27.95800018310546875 27.981000900268554688 27.997999191284179688 27.962999343872070312 27.951999664306640625 27.947999954223632812 27.944000244140625 27.930999755859375 27.964000701904296875 27.94499969482421875 27.909000396728515625 27.885999679565429688 27.863000869750976562 27.865999221801757812 27.86199951171875 27.864999771118164062 27.87599945068359375 27.886999130249023438 27.875 27.80699920654296875 27.84600067138671875 27.864000320434570312 27.84799957275390625 27.827999114990234375 27.91699981689453125 28.034000396728515625 28.145000457763671875 28.162000656127929688 28.160999298095703125 28.180999755859375 28.167999267578125 28.173999786376953125 28.148000717163085938 28.134000778198242188 28.13899993896484375 28.16699981689453125 28.191999435424804688 28.190999984741210938 28.219999313354492188 28.2220001220703125 28.215000152587890625 28.216999053955078125 28.238000869750976562 28.274000167846679688 28.26399993896484375 28.226999282836914062 28.194000244140625 28.212999343872070312 28.211999893188476562 28.312999725341796875 28.309000015258789062 28.356000900268554688 28.436000823974609375 28.427000045776367188 28.4850006103515625 28.521999359130859375 28.511999130249023438 0 0 0 0 0 0 0 0 0 0 0 0 0 0 0 0 0 0 0 0 0 0 0 0 0 0 0 0 0 0 0 0 0 0 0 0 0 0 0 0 0 0 0 0 0 0 0 0 0 0 0 0 0 0 0 0 0 0 0 0 0 0 0 0
0 0 0 0 0 0 0 0 0 0 0 0 0 0 0 0 31.4589996337890625 31.37599945068359375 31.386999130249023438 31.368000030517578125 31.31800079345703125 31.313999176025390625 31.308000564575195312 31.260999679565429688 31.215999603271484375 31.167999267578125 31.117000579833984375 30.922000885009765625 30.742000579833984375 30.634000778198242188 30.520000457763671875 30.506999969482421875 30.719999313354492188 30.628999710083007812 30.552999496459960938 30.481000900268554688 30.430999755859375 30.382999420166015625 30.326999664306640625 30.295000076293945312 30.238000869750976562 30.201999664306640625 30.131999969482421875 30.038000106811523438 29.93000030517578125 29.802000045776367188 29.580999374389648438 29.09600067138671875 28.940000534057617188 28.822999954223632812 28.719999313354492188 28.659999847412109375 28.544000625610351562 28.476999282836914062 28.41699981689453125 28.336999893188476562 28.288999557495117188 28.283000946044921875 28.305999755859375 28.326000213623046875 28.340000152587890625 28.312000274658203125 28.326999664306640625 28.330999374389648438 28.259000778198242188 28.135999679565429688 28.100999832153320312 28.065000534057617188 28.045000076293945312 27.950000762939453125 27.950000762939453125 27.957000732421875 27.950000762939453125 27.9290008544921875 27.905000686645507812 27.913999557495117188 27.923999786376953125 27.913999557495117188 27.905000686645507812 27.93000030517578125 27.913999557495117188 27.896999359130859375 27.9029998779296875 27.912000656127929688 27.88800048828125 27.881999969482421875 27.8899993896484375 27.868999481201171875 27.853000640869140625 27.816999435424804688 27.8040008544921875 27.81999969482421875 27.753999710083007812 26.952999114990234375 26.22100067138671875 26.40399932861328125 26.770999908447265625 27.13800048828125 27.503999710083007812 27.871000289916992188 27.938999176025390625 27.952999114990234375 27.976999282836914062 27.993000030517578125 27.962999343872070312 27.934000015258789062 27.93000030517578125 27.926000595092773438 27.91500091552734375 27.944000244140625 27.940999984741210938 27.909000396728515625 27.885999679565429688 27.863000869750976562 27.8600006103515625 27.8600006103515625 27.863000869750976562 27.865999221801757812 27.881999969482421875 27.882999420166015625 27.813999176025390625 27.8209991455078125 27.836999893188476562 27.84600067138671875 27.856000900268554688 27.871999740600585938 27.988000869750976562 28.104000091552734375 28.156999588012695312 28.169000625610351562 28.177999496459960938 28.19300079345703125 28.170000076293945312 28.146999359130859375 28.059000015258789062 28.100999832153320312 28.132999420166015625 28.197999954223632812 28.160999298095703125 28.218000411987304688 28.218000411987304688 28.212999343872070312 28.243999481201171875 28.267000198364257812 28.26399993896484375 28.22299957275390625 28.1790008544921875 28.148000717163085938 28.173999786376953125 28.187999725341796875 28.229999542236328125 28.256999969482421875 28.295000076293945312 28.357999801635742188 28.385999679565429688 28.422000885009765625 28.437999725341796875 28.417999267578125 28.479000091552734375 0 0 0 0 0 0 0 0 0 0 0 0 0 0 0 0 0 0 0 0 0 0 0 0 0 0 0 0 0 0 0 0 0 0 0 0 0 0 0 0 0 0 0 0 0 0 0 0 0 0 0 0 0 0 0 0 0 0 0 0 0 0 0
0 0 0 0 0 0 0 0 0 0 0 0 0 0 0 0 31.461999893188476562 31.385999679565429688 31.312999725341796875 31.327999114990234375 31.315000534057617188 31.2910003662109375 31.239000320434570312 31.1790008544921875 31.128000259399414062 31.076000213623046875 30.905000686645507812 30.70999908447265625 30.5149993896484375 30.319000244140625 30.1529998779296875 30.033000946044921875 30.240999221801757812 30.47100067138671875 30.562999725341796875 30.5 30.448999404907226562 30.392999649047851562 30.343999862670898438 30.305999755859375 30.256000518798828125 30.1959991455078125 30.125 30.069000244140625 29.98600006103515625 29.871999740600585938 29.673999786376953125 29.202999114990234375 28.951999664306640625 28.841999053955078125 28.697000503540039062 28.627000808715820312 28.538000106811523438 28.423999786376953125 28.350000381469726562 28.2779998779296875 28.275999069213867188 28.242000579833984375 28.292999267578125 28.298999786376953125 28.288000106811523438 28.256000518798828125 28.283000946044921875 28.29000091552734375 28.295000076293945312 28.174999237060546875 28.058000564575195312 28.037000656127929688 28.030000686645507812 27.954000473022460938 27.913000106811523438 27.91500091552734375 27.920000076293945312 27.900999069213867188 27.88800048828125 27.886999130249023438 27.913999557495117188 27.908000946044921875 27.899000167846679688 27.899000167846679688 27.923000335693359375 27.905000686645507812 27.913000106811523438 27.9160003662109375 27.906999588012695312 27.886999130249023438 27.899999618530273438 27.863000869750976562 27.84600067138671875 27.812999725341796875 27.815999984741210938 27.815999984741210938 27.73699951171875 27.06999969482421875 26.837999343872070312 26.676000595092773438 26.6959991455078125 27.062999725341796875 27.43000030517578125 27.797000885009765625 27.94300079345703125 27.948999404907226562 27.97299957275390625 27.98699951171875 27.962999343872070312 27.9160003662109375 27.912000656127929688 27.908000946044921875 27.9029998779296875 27.923999786376953125 27.937000274658203125 27.909999847412109375 27.886999130249023438 27.864000320434570312 27.854000091552734375 27.857999801635742188 27.86100006103515625 27.864000320434570312 27.864000320434570312 27.878000259399414062 27.881999969482421875 27.858999252319335938 27.850999832153320312 27.819000244140625 27.892999649047851562 27.840999603271484375 27.938999176025390625 28.09600067138671875 28.13800048828125 28.1529998779296875 28.169000625610351562 28.156999588012695312 28.13800048828125 28.100000381469726562 28.020000457763671875 28.077999114990234375 28.100999832153320312 28.172000885009765625 28.158000946044921875 28.187000274658203125 28.256999969482421875 28.246999740600585938 28.23600006103515625 28.343000411987304688 28.301000595092773438 28.172000885009765625 28.163000106811523438 28.163999557495117188 28.15200042724609375 28.114999771118164062 28.145999908447265625 28.177000045776367188 28.226999282836914062 28.281999588012695312 28.322000503540039062 28.3209991455078125 28.2649993896484375 28.2779998779296875 28.354999542236328125 0 0 0 0 0 0 0 0 0 0 0 0 0 0 0 0 0 0 0 0 0 0 0 0 0 0 0 0 0 0 0 0 0 0 0 0 0 0 0 0 0 0 0 0 0 0 0 0 0 0 0 0 0 0 0 0 0 0 0 0 0 0 0
0 0 0 0 0 0 0 0 0 0 0 0 0 0 0 0 31.465000152587890625 31.363000869750976562 31.315000534057617188 31.323999404907226562 31.319000244140625 31.268999099731445312 31.13899993896484375 31.086999893188476562 31.035999298095703125 30.88800048828125 30.69300079345703125 30.497999191284179688 30.302999496459960938 30.107999801635742188 29.913000106811523438 29.729000091552734375 29.812000274658203125 30.0709991455078125 30.36100006103515625 30.475000381469726562 30.440000534057617188 30.386999130249023438 30.353000640869140625 30.305999755859375 30.25099945068359375 30.20800018310546875 30.1529998779296875 30.086999893188476562 30.002000808715820312 29.9160003662109375 29.702999114990234375 29.336999893188476562 28.965999603271484375 28.81800079345703125 28.725000381469726562 28.5970001220703125 28.533000946044921875 28.478000640869140625 28.377000808715820312 28.322999954223632812 28.268999099731445312 28.22100067138671875 28.243000030517578125 28.245000839233398438 28.228000640869140625 28.20999908447265625 28.215000152587890625 28.238000869750976562 28.288999557495117188 28.233999252319335938 28.065000534057617188 28.033000946044921875 28.00099945068359375 27.982000350952148438 27.8899993896484375 27.8899993896484375 27.899000167846679688 27.885999679565429688 27.856000900268554688 27.854000091552734375 27.871000289916992188 27.881000518798828125 27.879999160766601562 27.875 27.909999847412109375 27.920999526977539062 27.910999298095703125 27.926000595092773438 27.920999526977539062 27.895999908447265625 27.87400054931640625 27.865999221801757812 27.839000701904296875 27.812000274658203125 27.826000213623046875 27.81800079345703125 27.80699920654296875 27.533000946044921875 27.434999465942382812 27.292999267578125 27.131999969482421875 27.079000473022460938 27.354999542236328125 27.7220001220703125 27.950000762939453125 27.947999954223632812 27.968000411987304688 27.981000900268554688 27.962999343872070312 27.898000717163085938 27.893999099731445312 27.8899993896484375 27.885999679565429688 27.90399932861328125 27.933000564575195312 27.909000396728515625 27.878999710083007812 27.875 27.870000839233398438 27.908000946044921875 27.893999099731445312 27.84799957275390625 27.854999542236328125 27.843999862670898438 27.843000411987304688 27.854000091552734375 27.822999954223632812 27.886999130249023438 27.995000839233398438 27.952999114990234375 27.954000473022460938 28.062000274658203125 28.121999740600585938 28.127000808715820312 28.107000350952148438 28.101999282836914062 28.106000900268554688 28.082000732421875 28.051000595092773438 28.048999786376953125 28.024999618530273438 28.122999191284179688 28.180999755859375 28.19499969482421875 28.216999053955078125 28.198999404907226562 28.18199920654296875 28.231000900268554688 28.211000442504882812 28.191999435424804688 28.134000778198242188 28.08499908447265625 28.034000396728515625 27.981000900268554688 27.976999282836914062 28.104999542236328125 28.018999099731445312 28.037000656127929688 28.002000808715820312 28.01300048828125 28.021999359130859375 28.149999618530273438 28.214000701904296875 28.270999908447265625 0 0 0 0 0 0 0 0 0 0 0 0 0 0 0 0 0 0 0 0 0 0 0 0 0 0 0 0 0 0 0 0 0 0 0 0 0 0 0 0 0 0 0 0 0 0 0 0 0 0 0 0 0 0 0 0 0 0 0 0 0 0
0 0 0 0 0 0 0 0 0 0 0 0 0 0 0 0 31.413000106811523438 31.341999053955078125 31.343999862670898438 31.344999313354492188 31.298999786376953125 31.170999526977539062 31.047000885009765625 30.995000839233398438 30.870000839233398438 30.674999237060546875 30.479999542236328125 30.284999847412109375 30.090000152587890625 29.895000457763671875 29.700000762939453125 29.504999160766601562 29.48600006103515625 29.80699920654296875 30.128000259399414062 30.447000503540039062 30.434000015258789062 30.384000778198242188 30.336000442504882812 30.323999404907226562 30.292999267578125 30.259000778198242188 30.201000213623046875 30.073999404907226562 29.9850006103515625 29.951999664306640625 29.753999710083007812 29.274000167846679688 28.976999282836914062 28.753999710083007812 28.697999954223632812 28.604999542236328125 28.510999679565429688 28.451999664306640625 28.368999481201171875 28.298999786376953125 28.26300048828125 28.232000350952148438 28.239000320434570312 28.225999832153320312 28.229000091552734375 28.225999832153320312 28.190000534057617188 28.177000045776367188 28.231000900268554688 28.173000335693359375 28.11100006103515625 27.989000320434570312 27.975999832153320312 27.951999664306640625 27.858999252319335938 27.844999313354492188 27.868000030517578125 27.872999191284179688 27.840000152587890625 27.81800079345703125 27.837999343872070312 27.893999099731445312 27.940000534057617188 27.906000137329101562 27.909999847412109375 27.924999237060546875 27.937999725341796875 27.923000335693359375 27.937999725341796875 27.892000198364257812 27.878999710083007812 27.832000732421875 27.80699920654296875 27.8209991455078125 27.812999725341796875 27.798999786376953125 27.8040008544921875 27.767000198364257812 27.711000442504882812 27.733999252319335938 27.658000946044921875 27.586999893188476562 27.48600006103515625 27.646999359130859375 27.95800018310546875 27.951999664306640625 27.962999343872070312 27.975999832153320312 27.962999343872070312 27.881000518798828125 27.871000289916992188 27.850000381469726562 27.8600006103515625 27.8470001220703125 27.853000640869140625 27.895999908447265625 27.917999267578125 27.91699981689453125 27.906000137329101562 27.899000167846679688 27.878000259399414062 27.867000579833984375 27.878000259399414062 27.882999420166015625 27.944000244140625 27.886999130249023438 27.80699920654296875 27.829999923706054688 27.990999221801757812 27.965000152587890625 27.920999526977539062 28.025999069213867188 28.11199951171875 28.091999053955078125 28.072000503540039062 28.0279998779296875 28.114999771118164062 28.076000213623046875 28.049999237060546875 28.06800079345703125 27.978000640869140625 28.017999649047851562 28.08300018310546875 28.087999343872070312 28.117000579833984375 28.04000091552734375 27.9850006103515625 27.954000473022460938 27.934000015258789062 27.84600067138671875 27.802000045776367188 27.754999160766601562 27.759000778198242188 27.66500091552734375 27.766000747680664062 27.759000778198242188 27.747999191284179688 27.844999313354492188 27.877000808715820312 27.920999526977539062 28.010999679565429688 28.100000381469726562 28.174999237060546875 28.229999542236328125 28.23600006103515625 0 0 0 0 0 0 0 0 0 0 0 0 0 0 0 0 0 0 0 0 0 0 0 0 0 0 0 0 0 0 0 0 0 0 0 0 0 0 0 0 0 0 0 0 0 0 0 0 0 0 0 0 0 0 0 0 0 0 0 0 0
0 0 0 0 0 0 0 0 0 0 0 0 0 0 0 0 0 31.283000946044921875 31.29000091552734375 31.256999969482421875 31.1959991455078125 31.0540008544921875 30.954999923706054688 30.853000640869140625 30.658000946044921875 30.462999343872070312 30.267999649047851562 30.072999954223632812 29.881999969482421875 29.746000289916992188 29.61100006103515625 29.507999420166015625 29.577999114990234375 29.802999496459960938 30.103000640869140625 30.4290008544921875 30.396999359130859375 30.33499908447265625 30.322999954223632812 30.326999664306640625 30.322999954223632812 30.260000228881835938 30.184000015258789062 30.107000350952148438 30.038999557495117188 29.881000518798828125 29.426000595092773438 29.059000015258789062 28.83499908447265625 28.701999664306640625 28.615999221801757812 28.61199951171875 28.503000259399414062 28.427999496459960938 28.3470001220703125 28.30699920654296875 28.284000396728515625 28.326000213623046875 28.275999069213867188 28.200000762939453125 28.201000213623046875 28.170999526977539062 28.122999191284179688 28.142999649047851562 28.122999191284179688 28.090999603271484375 28.08499908447265625 27.988000869750976562 27.950000762939453125 27.922000885009765625 27.88899993896484375 27.822999954223632812 27.830999374389648438 27.83300018310546875 27.8339996337890625 27.795999526977539062 27.781000137329101562 27.840999603271484375 27.892000198364257812 27.895000457763671875 27.892999649047851562 27.910999298095703125 27.923999786376953125 27.927000045776367188 27.941999435424804688 27.895999908447265625 27.868000030517578125 27.8339996337890625 27.8040008544921875 27.799999237060546875 27.798000335693359375 27.851999282836914062 27.8470001220703125 27.830999374389648438 27.795999526977539062 27.822000503540039062 27.886999130249023438 27.906000137329101562 27.895000457763671875 27.893999099731445312 27.968999862670898438 27.975999832153320312 27.964000701904296875 27.966999053955078125 27.974000930786132812 27.90200042724609375 27.878999710083007812 27.863000869750976562 27.868000030517578125 27.850999832153320312 27.843000411987304688 27.86100006103515625 27.923999786376953125 27.9160003662109375 27.912000656127929688 27.933000564575195312 27.933000564575195312 27.899000167846679688 27.881000518798828125 27.875 27.868000030517578125 27.849000930786132812 27.899999618530273438 27.850000381469726562 27.891000747680664062 27.941999435424804688 27.905000686645507812 28.006999969482421875 28.058000564575195312 28.033000946044921875 28.006000518798828125 27.892000198364257812 28.010000228881835938 27.94300079345703125 27.83300018310546875 27.837999343872070312 27.733999252319335938 27.773000717163085938 27.825000762939453125 27.771999359130859375 27.788000106811523438 27.760999679565429688 27.702999114990234375 27.676000595092773438 27.642000198364257812 27.618999481201171875 27.589000701904296875 27.579999923706054688 27.606000900268554688 27.625 27.6660003662109375 27.687999725341796875 27.733999252319335938 27.812000274658203125 27.844999313354492188 27.850000381469726562 27.954000473022460938 28.0709991455078125 28.1790008544921875 28.239999771118164062 28.204999923706054688 0 0 0 0 0 0 0 0 0 0 0 0 0 0 0 0 0 0 0 0 0 0 0 0 0 0 0 0 0 0 0 0 0 0 0 0 0 0 0 0 0 0 0 0 0 0 0 0 0 0 0 0 0 0 0 0 0 0 0 0 0
0 0 0 0 0 0 0 0 0 0 0 0 0 0 0 0 0 0 31.23699951171875 31.207000732421875 31.129999160766601562 30.9290008544921875 30.83499908447265625 30.6399993896484375 30.44499969482421875 30.270000457763671875 30.135000228881835938 29.99900054931640625 29.864000320434570312 29.728000640869140625 29.593000411987304688 29.645999908447265625 29.715999603271484375 29.836999893188476562 30.121000289916992188 30.271999359130859375 30.274999618530273438 30.340000152587890625 30.396999359130859375 30.384000778198242188 30.3209991455078125 30.26399993896484375 30.19499969482421875 30.077999114990234375 29.868000030517578125 29.417999267578125 29.12599945068359375 28.968999862670898438 28.844999313354492188 28.69300079345703125 28.614000320434570312 28.542999267578125 28.464000701904296875 28.368999481201171875 28.294000625610351562 28.31999969482421875 28.36100006103515625 28.392999649047851562 28.305999755859375 28.183000564575195312 28.145999908447265625 28.1399993896484375 28.093000411987304688 28.121000289916992188 28.075000762939453125 28.059000015258789062 28.034000396728515625 27.982000350952148438 27.926000595092773438 27.88899993896484375 27.868000030517578125 27.799999237060546875 27.781999588012695312 27.805999755859375 27.798999786376953125 27.771999359130859375 27.754999160766601562 27.784000396728515625 27.816999435424804688 27.856000900268554688 27.893999099731445312 27.91699981689453125 27.919000625610351562 27.912000656127929688 27.919000625610351562 27.900999069213867188 27.88800048828125 27.90399932861328125 27.91699981689453125 27.947999954223632812 27.9290008544921875 27.9029998779296875 27.86100006103515625 27.884000778198242188 27.884000778198242188 27.857000350952148438 27.951999664306640625 27.98600006103515625 27.981000900268554688 27.964000701904296875 27.979999542236328125 27.97299957275390625 27.961999893188476562 27.906000137329101562 27.864000320434570312 27.891000747680664062 27.879999160766601562 27.867000579833984375 27.850000381469726562 27.853000640869140625 27.8470001220703125 27.853000640869140625 27.84799957275390625 27.854000091552734375 27.909000396728515625 27.951999664306640625 27.920000076293945312 27.93000030517578125 27.912000656127929688 27.836999893188476562 27.830999374389648438 27.825000762939453125 27.844999313354492188 27.87400054931640625 27.879999160766601562 27.899000167846679688 27.895999908447265625 27.896999359130859375 27.886999130249023438 27.900999069213867188 27.86199951171875 27.756000518798828125 27.850000381469726562 27.745000839233398438 27.65200042724609375 27.656000137329101562 27.677000045776367188 27.66699981689453125 27.656999588012695312 27.6529998779296875 27.627000808715820312 27.579000473022460938 27.54000091552734375 27.55699920654296875 27.545999526977539062 27.558000564575195312 27.569000244140625 27.58499908447265625 27.603000640869140625 27.615999221801757812 27.636999130249023438 27.6790008544921875 27.711999893188476562 27.75099945068359375 27.77899932861328125 27.781000137329101562 27.844999313354492188 28.031000137329101562 28.180999755859375 28.186000823974609375 28.021999359130859375 27.934000015258789062 0 0 0 0 0 0 0 0 0 0 0 0 0 0 0 0 0 0 0 0 0 0 0 0 0 0 0 0 0 0 0 0 0 0 0 0 0 0 0 0 0 0 0 0 0 0 0 0 0 0 0 0 0 0 0 0 0 0 0 0
0 0 0 0 0 0 0 0 0 0 0 0 0 0 0 0 0 0 31.1660003662109375 31.145999908447265625 31.12400054931640625 30.81800079345703125 30.659000396728515625 30.523000717163085938 30.38800048828125 30.252000808715820312 30.117000579833984375 29.981000900268554688 29.84600067138671875 29.70999908447265625 29.712999343872070312 29.783000946044921875 29.853000640869140625 29.923000335693359375 30.155000686645507812 30.202999114990234375 30.267000198364257812 30.437000274658203125 30.558000564575195312 30.399000167846679688 30.330999374389648438 30.216999053955078125 30.011999130249023438 29.75099945068359375 29.582000732421875 29.332000732421875 29.09600067138671875 29.002000808715820312 28.840000152587890625 28.697999954223632812 28.614000320434570312 28.5 28.427999496459960938 28.412000656127929688 28.382999420166015625 28.395999908447265625 28.395999908447265625 28.350000381469726562 28.29000091552734375 28.155000686645507812 28.100999832153320312 28.010999679565429688 28.01300048828125 28.048999786376953125 28.05699920654296875 28.01399993896484375 28.010999679565429688 27.975000381469726562 27.9160003662109375 27.864000320434570312 27.84600067138671875 27.813999176025390625 27.754999160766601562 27.771999359130859375 27.770000457763671875 27.746999740600585938 27.728000640869140625 27.719999313354492188 27.781000137329101562 27.829999923706054688 27.920000076293945312 27.955999374389648438 27.9589996337890625 27.995000839233398438 27.966999053955078125 27.957000732421875 27.933000564575195312 27.940000534057617188 27.94499969482421875 27.962999343872070312 27.933000564575195312 27.905000686645507812 27.864999771118164062 27.870000839233398438 27.879999160766601562 27.919000625610351562 27.951999664306640625 27.926000595092773438 27.895000457763671875 27.840999603271484375 27.802999496459960938 27.937000274658203125 27.920000076293945312 27.910999298095703125 27.909999847412109375 27.93000030517578125 27.912000656127929688 27.892999649047851562 27.87400054931640625 27.857999801635742188 27.832000732421875 27.826999664306640625 27.840000152587890625 27.8470001220703125 27.868000030517578125 27.900999069213867188 27.900999069213867188 27.912000656127929688 27.937000274658203125 27.9290008544921875 27.871999740600585938 27.829000473022460938 27.812000274658203125 27.809000015258789062 27.816999435424804688 27.900999069213867188 27.839000701904296875 27.70999908447265625 27.670999526977539062 27.672000885009765625 27.68199920654296875 27.677000045776367188 27.673999786376953125 27.659000396728515625 27.594999313354492188 27.559999465942382812 27.52700042724609375 27.531999588012695312 27.520000457763671875 27.524000167846679688 27.523000717163085938 27.544000625610351562 27.5540008544921875 27.55699920654296875 27.538000106811523438 27.56800079345703125 27.5839996337890625 27.593000411987304688 27.631999969482421875 27.642000198364257812 27.667999267578125 27.694000244140625 27.715000152587890625 27.733999252319335938 27.729999542236328125 27.700000762939453125 27.757999420166015625 27.913000106811523438 28.031000137329101562 28.065999984741210938 27.770000457763671875 27.93199920654296875 27.865999221801757812 0 0 0 0 0 0 0 0 0 0 0 0 0 0 0 0 0 0 0 0 0 0 0 0 0 0 0 0 0 0 0 0 0 0 0 0 0 0 0 0 0 0 0 0 0 0 0 0 0 0 0 0 0 0 0 0 0 0 0
0 0 0 0 0 0 0 0 0 0 0 0 0 0 0 0 0 0 0 31.044000625610351562 30.899999618530273438 30.79000091552734375 30.641000747680664062 30.504999160766601562 30.370000839233398438 30.2350006103515625 30.099000930786132812 29.964000701904296875 29.827999114990234375 29.781000137329101562 29.850999832153320312 29.920999526977539062 29.990999221801757812 30.061000823974609375 30.188999176025390625 30.134000778198242188 30.294000625610351562 30.465999603271484375 30.562999725341796875 30.427000045776367188 30.4029998779296875 30.2649993896484375 29.826000213623046875 29.686000823974609375 29.549999237060546875 29.354000091552734375 29.143999099731445312 28.990999221801757812 28.836999893188476562 28.7350006103515625 28.684999465942382812 28.437000274658203125 28.448999404907226562 28.452999114990234375 28.40200042724609375 28.364000320434570312 28.30699920654296875 28.240999221801757812 28.146999359130859375 28.091999053955078125 28.023000717163085938 28.062999725341796875 28.04199981689453125 28.024000167846679688 28.038000106811523438 28.004999160766601562 28.003000259399414062 27.948999404907226562 27.951000213623046875 27.856000900268554688 27.809000015258789062 27.80500030517578125 27.716999053955078125 27.718000411987304688 27.740999221801757812 27.7350006103515625 27.688999176025390625 27.684999465942382812 27.729000091552734375 27.870000839233398438 28.020999908447265625 27.964000701904296875 27.962999343872070312 27.993000030517578125 27.9589996337890625 27.957000732421875 27.936000823974609375 27.948999404907226562 27.9720001220703125 27.97299957275390625 27.9459991455078125 27.9160003662109375 27.871000289916992188 27.863000869750976562 27.881000518798828125 27.950000762939453125 27.90399932861328125 27.9029998779296875 27.878999710083007812 27.850999832153320312 27.86199951171875 27.9029998779296875 27.898000717163085938 27.923999786376953125 27.909999847412109375 27.920999526977539062 27.9290008544921875 27.910999298095703125 27.892000198364257812 27.87400054931640625 27.837999343872070312 27.809999465942382812 27.8470001220703125 27.823999404907226562 27.843000411987304688 27.830999374389648438 27.8040008544921875 27.854000091552734375 27.9160003662109375 28.010999679565429688 27.9290008544921875 27.8470001220703125 27.802999496459960938 27.743999481201171875 27.732000350952148438 27.680999755859375 27.6790008544921875 27.551000595092773438 27.59799957275390625 27.591999053955078125 27.54199981689453125 27.50099945068359375 27.493000030517578125 27.503000259399414062 27.503999710083007812 27.518999099731445312 27.516000747680664062 27.531000137329101562 27.534000396728515625 27.524000167846679688 27.545999526977539062 27.549999237060546875 27.569000244140625 27.566999435424804688 27.576000213623046875 27.586000442504882812 27.600999832153320312 27.62400054931640625 27.642000198364257812 27.658000946044921875 27.658000946044921875 27.676000595092773438 27.684000015258789062 27.70999908447265625 27.690999984741210938 27.641000747680664062 27.659000396728515625 27.7220001220703125 27.76399993896484375 27.684999465942382812 27.545000076293945312 27.659000396728515625 27.634000778198242188 0 0 0 0 0 0 0 0 0 0 0 0 0 0 0 0 0 0 0 0 0 0 0 0 0 0 0 0 0 0 0 0 0 0 0 0 0 0 0 0 0 0 0 0 0 0 0 0 0 0 0 0 0 0 0 0 0 0 0
0 0 0 0 0 0 0 0 0 0 0 0 0 0 0 0 0 0 0 0 30.978000640869140625 30.8040008544921875 30.622999191284179688 30.488000869750976562 30.351999282836914062 30.216999053955078125 30.080999374389648438 29.9459991455078125 29.849000930786132812 29.919000625610351562 29.988000869750976562 30.058000564575195312 30.128000259399414062 30.197999954223632812 30.190999984741210938 30.187999725341796875 30.315000534057617188 30.47100067138671875 30.492000579833984375 30.454999923706054688 30.44300079345703125 30.368999481201171875 29.9589996337890625 29.729999542236328125 29.58300018310546875 29.381999969482421875 29.212999343872070312 29.127000808715820312 28.997999191284179688 28.872999191284179688 28.6790008544921875 28.468999862670898438 28.437000274658203125 28.436000823974609375 28.386999130249023438 28.2779998779296875 28.200000762939453125 28.177999496459960938 28.198999404907226562 28.225999832153320312 28.260999679565429688 28.149999618530273438 28.037000656127929688 28.045000076293945312 28.003999710083007812 27.961000442504882812 27.95800018310546875 27.974000930786132812 27.934000015258789062 27.854000091552734375 27.788999557495117188 27.752000808715820312 27.70800018310546875 27.684999465942382812 27.694000244140625 27.69499969482421875 27.676000595092773438 27.6790008544921875 27.642999649047851562 27.829999923706054688 28.025999069213867188 27.969999313354492188 27.936000823974609375 27.9720001220703125 27.954000473022460938 27.948999404907226562 27.944000244140625 27.9459991455078125 27.95999908447265625 27.98699951171875 27.950000762939453125 27.905000686645507812 27.867000579833984375 27.858999252319335938 27.913999557495117188 27.961999893188476562 27.900999069213867188 27.924999237060546875 27.90200042724609375 27.9029998779296875 27.892000198364257812 27.893999099731445312 27.857000350952148438 27.812999725341796875 27.829999923706054688 27.87599945068359375 27.850999832153320312 27.875 27.899000167846679688 27.884000778198242188 27.8600006103515625 27.8339996337890625 27.826999664306640625 27.836999893188476562 27.86100006103515625 27.87599945068359375 27.77700042724609375 27.740999221801757812 27.795000076293945312 27.72100067138671875 27.715000152587890625 27.659999847412109375 27.629999160766601562 27.580999374389648438 27.604999542236328125 27.497999191284179688 27.476999282836914062 27.44499969482421875 27.455999374389648438 27.461999893188476562 27.47299957275390625 27.47100067138671875 27.496999740600585938 27.5 27.509000778198242188 27.516000747680664062 27.506000518798828125 27.537000656127929688 27.535999298095703125 27.558000564575195312 27.552999496459960938 27.572000503540039062 27.590000152587890625 27.613000869750976562 27.617000579833984375 27.5970001220703125 27.599000930786132812 27.628000259399414062 27.627000808715820312 27.625 27.62400054931640625 27.622999191284179688 27.603000640869140625 27.663999557495117188 27.649999618530273438 27.566999435424804688 27.562999725341796875 27.594999313354492188 27.670999526977539062 27.62599945068359375 27.534000396728515625 27.4160003662109375 27.455999374389648438 0 0 0 0 0 0 0 0 0 0 0 0 0 0 0 0 0 0 0 0 0 0 0 0 0 0 0 0 0 0 0 0 0 0 0 0 0 0 0 0 0 0 0 0 0 0 0 0 0 0 0 0 0 0 0 0 0 0 0
0 0 0 0 0 0 0 0 0 0 0 0 0 0 0 0 0 0 0 0 0 30.81800079345703125 30.613000869750976562 30.469999313354492188 30.3339996337890625 30.198999404907226562 30.062999725341796875 29.927999496459960938 29.98600006103515625 30.055999755859375 30.12599945068359375 30.1959991455078125 30.215999603271484375 30.20800018310546875 30.19300079345703125 30.218999862670898438 30.329999923706054688 30.503999710083007812 30.520000457763671875 30.492000579833984375 30.452999114990234375 30.434000015258789062 30.136999130249023438 29.745000839233398438 29.62400054931640625 29.447000503540039062 29.339000701904296875 29.226999282836914062 29.0540008544921875 28.982000350952148438 28.754999160766601562 28.538000106811523438 28.409000396728515625 28.325000762939453125 28.252000808715820312 28.2350006103515625 28.339000701904296875 28.385000228881835938 28.368999481201171875 28.316999435424804688 28.24900054931640625 28.12400054931640625 28.044000625610351562 28.018999099731445312 27.98600006103515625 27.969999313354492188 28 28.034999847412109375 27.923000335693359375 27.822000503540039062 27.757999420166015625 27.73600006103515625 27.740999221801757812 27.6529998779296875 27.662000656127929688 27.66500091552734375 27.686000823974609375 27.673999786376953125 27.613000869750976562 27.705999374389648438 27.870000839233398438 27.871000289916992188 27.920999526977539062 27.951000213623046875 27.934000015258789062 27.951000213623046875 27.9459991455078125 27.9459991455078125 27.974000930786132812 27.94499969482421875 27.919000625610351562 27.899999618530273438 27.8899993896484375 27.885999679565429688 27.86199951171875 27.843999862670898438 27.937999725341796875 27.936000823974609375 27.899999618530273438 27.895000457763671875 27.895000457763671875 27.893999099731445312 27.832000732421875 27.743999481201171875 27.819000244140625 27.830999374389648438 27.79000091552734375 27.797000885009765625 27.8209991455078125 27.844999313354492188 27.875 27.872999191284179688 27.813999176025390625 27.773000717163085938 27.781999588012695312 27.712999343872070312 27.711999893188476562 27.656000137329101562 27.608999252319335938 27.548000335693359375 27.5149993896484375 27.47100067138671875 27.44499969482421875 27.447999954223632812 27.420000076293945312 27.417999267578125 27.420999526977539062 27.437000274658203125 27.441999435424804688 27.447000503540039062 27.465999603271484375 27.479999542236328125 27.493000030517578125 27.503000259399414062 27.511999130249023438 27.523000717163085938 27.524000167846679688 27.562999725341796875 27.731000900268554688 27.86100006103515625 27.729000091552734375 27.599000930786132812 27.642000198364257812 27.771999359130859375 27.66699981689453125 27.608999252319335938 27.641000747680664062 27.642000198364257812 27.606000900268554688 27.591999053955078125 27.590000152587890625 27.589000701904296875 27.586999893188476562 27.590999603271484375 27.561000823974609375 27.5540008544921875 27.488000869750976562 27.520000457763671875 27.566999435424804688 27.576000213623046875 27.479999542236328125 27.295999526977539062 27.311000823974609375 0 0 0 0 0 0 0 0 0 0 0 0 0 0 0 0 0 0 0 0 0 0 0 0 0 0 0 0 0 0 0 0 0 0 0 0 0 0 0 0 0 0 0 0 0 0 0 0 0 0 0 0 0 0 0 0 0 0 0
0 0 0 0 0 0 0 0 0 0 0 0 0 0 0 0 0 0 0 0 0 30.832000732421875 30.627000808715820312 30.451999664306640625 30.315999984741210938 30.180999755859375 30.045999526977539062 30.0540008544921875 30.12400054931640625 30.194000244140625 30.228000640869140625 30.219999313354492188 30.211999893188476562 30.190999984741210938 30.214000701904296875 30.201000213623046875 30.315999984741210938 30.503000259399414062 30.552000045776367188 30.518999099731445312 30.455999374389648438 30.476999282836914062 30.252000808715820312 29.816999435424804688 29.645999908447265625 29.52700042724609375 29.427999496459960938 29.3040008544921875 29.149000167846679688 28.934000015258789062 28.794000625610351562 28.62400054931640625 28.48600006103515625 28.493999481201171875 28.52899932861328125 28.604000091552734375 28.482999801635742188 28.489999771118164062 28.448999404907226562 28.343000411987304688 28.266000747680664062 28.15200042724609375 28.069000244140625 28.003999710083007812 27.98600006103515625 27.962999343872070312 27.996999740600585938 27.962999343872070312 27.8899993896484375 27.819000244140625 27.75099945068359375 27.697000503540039062 27.686000823974609375 27.63800048828125 27.63800048828125 27.645000457763671875 27.65200042724609375 27.635000228881835938 27.591999053955078125 27.600999832153320312 27.742000579833984375 27.8209991455078125 27.881999969482421875 27.934000015258789062 27.944000244140625 27.94300079345703125 27.937999725341796875 27.923000335693359375 27.948999404907226562 27.947000503540039062 27.936000823974609375 27.892999649047851562 27.895000457763671875 27.90200042724609375 27.892000198364257812 27.858999252319335938 27.881000518798828125 27.90399932861328125 27.83300018310546875 27.839000701904296875 27.84600067138671875 27.850000381469726562 27.905000686645507812 27.826999664306640625 27.80699920654296875 27.787000656127929688 27.745000839233398438 27.718999862670898438 27.743000030517578125 27.72100067138671875 27.694000244140625 27.659000396728515625 27.673000335693359375 27.63800048828125 27.591999053955078125 27.54199981689453125 27.517999649047851562 27.5149993896484375 27.488000869750976562 27.475000381469726562 27.461000442504882812 27.451999664306640625 27.43000030517578125 27.41500091552734375 27.385000228881835938 27.410999298095703125 27.413000106811523438 27.424999237060546875 27.466999053955078125 27.56999969482421875 27.63899993896484375 27.468999862670898438 27.516000747680664062 27.562999725341796875 27.493000030517578125 27.503999710083007812 27.531999588012695312 27.672000885009765625 27.812999725341796875 27.952999114990234375 28.093000411987304688 28.018999099731445312 27.895000457763671875 27.770000457763671875 27.645000457763671875 27.593000411987304688 27.606000900268554688 27.614000320434570312 27.6100006103515625 27.607000350952148438 27.576999664306640625 27.559999465942382812 27.5540008544921875 27.552999496459960938 27.555999755859375 27.545999526977539062 27.4459991455078125 27.450000762939453125 27.493999481201171875 27.504999160766601562 27.33300018310546875 27.16699981689453125 27.187999725341796875 0 0 0 0 0 0 0 0 0 0 0 0 0 0 0 0 0 0 0 0 0 0 0 0 0 0 0 0 0 0 0 0 0 0 0 0 0 0 0 0 0 0 0 0 0 0 0 0 0 0 0 0 0 0 0 0 0 0 0
0 0 0 0 0 0 0 0 0 0 0 0 0 0 0 0 0 0 0 0 0 30.95800018310546875 30.641000747680664062 30.436000823974609375 30.298999786376953125 30.163000106811523438 30.121000289916992188 30.190999984741210938 30.240999221801757812 30.232000350952148438 30.224000930786132812 30.215000152587890625 30.207000732421875 30.200000762939453125 30.201000213623046875 30.207000732421875 30.274000167846679688 30.40200042724609375 30.549999237060546875 30.5149993896484375 30.524999618530273438 30.400999069213867188 30.158000946044921875 29.863000869750976562 29.704999923706054688 29.565000534057617188 29.451999664306640625 29.297000885009765625 29.197000503540039062 29.02899932861328125 28.898000717163085938 28.917999267578125 28.851999282836914062 28.813999176025390625 28.74900054931640625 28.7220001220703125 28.635999679565429688 28.54000091552734375 28.457000732421875 28.371999740600585938 28.257999420166015625 28.155000686645507812 28.08300018310546875 28.02700042724609375 27.99900054931640625 27.9720001220703125 27.978000640869140625 27.940999984741210938 27.899000167846679688 27.844999313354492188 27.811000823974609375 27.690000534057617188 27.646999359130859375 27.61100006103515625 27.5970001220703125 27.607000350952148438 27.6100006103515625 27.589000701904296875 27.576999664306640625 27.548999786376953125 27.656000137329101562 27.76300048828125 27.865999221801757812 27.893999099731445312 27.88800048828125 27.841999053955078125 27.864000320434570312 27.868999481201171875 27.909000396728515625 27.95800018310546875 27.957000732421875 27.86100006103515625 27.881999969482421875 27.878000259399414062 27.912000656127929688 27.94300079345703125 27.877000808715820312 27.788999557495117188 27.7350006103515625 27.70999908447265625 27.716999053955078125 27.743000030517578125 27.795999526977539062 27.746999740600585938 27.70800018310546875 27.718000411987304688 27.684999465942382812 27.649000167846679688 27.6100006103515625 27.604000091552734375 27.582000732421875 27.565000534057617188 27.555999755859375 27.547000885009765625 27.542999267578125 27.525999069213867188 27.507999420166015625 27.49900054931640625 27.490999221801757812 27.4720001220703125 27.465000152587890625 27.451999664306640625 27.457000732421875 27.448999404907226562 27.455999374389648438 27.45800018310546875 27.488000869750976562 27.48699951171875 27.811000823974609375 27.934999465942382812 27.7350006103515625 27.795999526977539062 27.676000595092773438 27.5540008544921875 27.474000930786132812 27.479999542236328125 27.489000320434570312 27.562000274658203125 27.701999664306640625 27.841999053955078125 27.982999801635742188 27.996999740600585938 27.872999191284179688 27.747999191284179688 27.62400054931640625 27.576999664306640625 27.5709991455078125 27.586000442504882812 27.582000732421875 27.577999114990234375 27.573999404907226562 27.5709991455078125 27.548999786376953125 27.533000946044921875 27.517999649047851562 27.493999481201171875 27.441999435424804688 27.367000579833984375 27.434999465942382812 27.370000839233398438 27.128000259399414062 27.033000946044921875 27.177999496459960938 27.266000747680664062 0 0 0 0 0 0 0 0 0 0 0 0 0 0 0 0 0 0 0 0 0 0 0 0 0 0 0 0 0 0 0 0 0 0 0 0 0 0 0 0 0 0 0 0 0 0 0 0 0 0 0 0 0 0 0 0 0 0
0 0 0 0 0 0 0 0 0 0 0 0 0 0 0 0 0 0 0 0 0 30.836999893188476562 30.754999160766601562 30.450000762939453125 30.281000137329101562 30.188999176025390625 30.253000259399414062 30.243999481201171875 30.23600006103515625 30.228000640869140625 30.218999862670898438 30.211000442504882812 30.197999954223632812 30.226999282836914062 30.202999114990234375 30.25 30.2779998779296875 30.384000778198242188 30.479999542236328125 30.551000595092773438 30.423999786376953125 30.2779998779296875 30.073999404907226562 29.909999847412109375 29.760999679565429688 29.645999908447265625 29.461000442504882812 29.315000534057617188 29.322999954223632812 29.378999710083007812 29.312000274658203125 29.22299957275390625 29.072000503540039062 28.982000350952148438 28.844999313354492188 28.746999740600585938 28.670999526977539062 28.614999771118164062 28.534999847412109375 28.343000411987304688 28.207000732421875 28.146999359130859375 28.06999969482421875 28.048999786376953125 28.010000228881835938 27.955999374389648438 27.944000244140625 27.923999786376953125 27.857000350952148438 27.815000534057617188 27.718999862670898438 27.673000335693359375 27.641000747680664062 27.607000350952148438 27.575000762939453125 27.5839996337890625 27.563999176025390625 27.563999176025390625 27.548000335693359375 27.517000198364257812 27.587999343872070312 27.698999404907226562 27.829999923706054688 27.906999588012695312 27.893999099731445312 27.704999923706054688 27.830999374389648438 27.849000930786132812 27.881000518798828125 27.882999420166015625 27.937999725341796875 27.923999786376953125 27.8899993896484375 27.8600006103515625 27.864000320434570312 27.906999588012695312 27.8209991455078125 27.659999847412109375 27.632999420166015625 27.580999374389648438 27.559000015258789062 27.631000518798828125 27.632999420166015625 27.600000381469726562 27.586000442504882812 27.5970001220703125 27.582000732421875 27.559000015258789062 27.561000823974609375 27.569000244140625 27.55500030517578125 27.55699920654296875 27.551000595092773438 27.5410003662109375 27.534000396728515625 27.5279998779296875 27.530000686645507812 27.51399993896484375 27.506999969482421875 27.510999679565429688 27.5279998779296875 27.538000106811523438 27.525999069213867188 27.524000167846679688 27.566999435424804688 27.61100006103515625 27.589000701904296875 27.618999481201171875 27.936000823974609375 27.993999481201171875 27.910999298095703125 27.788999557495117188 27.66699981689453125 27.544000625610351562 27.455999374389648438 27.457000732421875 27.466999053955078125 27.47299957275390625 27.591999053955078125 27.732000350952148438 27.871999740600585938 27.940000534057617188 27.850999832153320312 27.726999282836914062 27.601999282836914062 27.562000274658203125 27.535999298095703125 27.55699920654296875 27.552999496459960938 27.549999237060546875 27.545999526977539062 27.54199981689453125 27.538999557495117188 27.534999847412109375 27.520999908447265625 27.48600006103515625 27.400999069213867188 27.329000473022460938 27.41699981689453125 27.33499908447265625 27.186000823974609375 27.131999969482421875 27.201000213623046875 27.229000091552734375 0 0 0 0 0 0 0 0 0 0 0 0 0 0 0 0 0 0 0 0 0 0 0 0 0 0 0 0 0 0 0 0 0 0 0 0 0 0 0 0 0 0 0 0 0 0 0 0 0 0 0 0 0 0 0 0 0 0
0 0 0 0 0 0 0 0 0 0 0 0 0 0 0 0 0 0 0 0 0 30.701000213623046875 30.688999176025390625 30.507999420166015625 30.26300048828125 30.256999969482421875 30.247999191284179688 30.239999771118164062 30.231000900268554688 30.22299957275390625 30.215000152587890625 30.205999374389648438 30.211000442504882812 30.218999862670898438 30.202999114990234375 30.273000717163085938 30.378000259399414062 30.395999908447265625 30.43000030517578125 30.408000946044921875 30.298000335693359375 30.252000808715820312 30.125 29.979999542236328125 29.83300018310546875 29.718999862670898438 29.620000839233398438 29.534999847412109375 29.395999908447265625 29.496000289916992188 29.38800048828125 29.252000808715820312 29.16699981689453125 29.035999298095703125 28.923000335693359375 28.841999053955078125 28.783000946044921875 28.631999969482421875 28.483999252319335938 28.395000457763671875 28.201999664306640625 28.12599945068359375 28.06999969482421875 28.044000625610351562 28.011999130249023438 27.947000503540039062 27.917999267578125 27.879999160766601562 27.8339996337890625 27.752000808715820312 27.701000213623046875 27.669000625610351562 27.648000717163085938 27.606000900268554688 27.565000534057617188 27.538999557495117188 27.531999588012695312 27.520999908447265625 27.509000778198242188 27.504999160766601562 27.495000839233398438 27.6399993896484375 27.771999359130859375 27.864000320434570312 27.836000442504882812 27.77700042724609375 27.827999114990234375 27.81800079345703125 27.826999664306640625 27.802999496459960938 27.850999832153320312 27.798000335693359375 27.747999191284179688 27.670999526977539062 27.618000030517578125 27.59600067138671875 27.548999786376953125 27.509000778198242188 27.455999374389648438 27.464000701904296875 27.47100067138671875 27.490999221801757812 27.520000457763671875 27.534000396728515625 27.533000946044921875 27.54199981689453125 27.555999755859375 27.5540008544921875 27.565999984741210938 27.561000823974609375 27.565999984741210938 27.558000564575195312 27.54199981689453125 27.542999267578125 27.5410003662109375 27.537000656127929688 27.520000457763671875 27.524999618530273438 27.516000747680664062 27.523000717163085938 27.534000396728515625 27.545999526977539062 27.55699920654296875 27.614000320434570312 27.607000350952148438 27.621000289916992188 27.701000213623046875 27.84799957275390625 27.993999481201171875 28.0149993896484375 27.90200042724609375 27.780000686645507812 27.656999588012695312 27.534999847412109375 27.437999725341796875 27.434000015258789062 27.444000244140625 27.450000762939453125 27.482000350952148438 27.621999740600585938 27.761999130249023438 27.88800048828125 27.829999923706054688 27.704999923706054688 27.580999374389648438 27.545999526977539062 27.503000259399414062 27.52899932861328125 27.524999618530273438 27.520999908447265625 27.517999649047851562 27.51399993896484375 27.510000228881835938 27.506000518798828125 27.503999710083007812 27.47299957275390625 27.396999359130859375 27.312999725341796875 27.336999893188476562 27.353000640869140625 27.225999832153320312 27.18000030517578125 27.211000442504882812 27.261999130249023438 0 0 0 0 0 0 0 0 0 0 0 0 0 0 0 0 0 0 0 0 0 0 0 0 0 0 0 0 0 0 0 0 0 0 0 0 0 0 0 0 0 0 0 0 0 0 0 0 0 0 0 0 0 0 0 0 0 0
0 0 0 0 0 0 0 0 0 0 0 0 0 0 0 0 0 0 0 0 0 30.686000823974609375 30.6660003662109375 30.55500030517578125 30.353000640869140625 30.309000015258789062 30.270000457763671875 30.273000717163085938 30.270000457763671875 30.253000259399414062 30.23600006103515625 30.215000152587890625 30.218000411987304688 30.253999710083007812 30.29199981689453125 30.371000289916992188 30.424999237060546875 30.427000045776367188 30.437000274658203125 30.43199920654296875 30.38899993896484375 30.274000167846679688 30.163000106811523438 30.048999786376953125 29.93199920654296875 29.829000473022460938 29.714000701904296875 29.6529998779296875 29.534000396728515625 29.475999832153320312 29.417999267578125 29.302999496459960938 29.253000259399414062 29.180999755859375 29.100000381469726562 28.961999893188476562 28.798999786376953125 28.606000900268554688 28.417999267578125 28.284999847412109375 28.145999908447265625 28.090999603271484375 28.05699920654296875 28.018999099731445312 27.982000350952148438 27.934000015258789062 27.870000839233398438 27.729000091552734375 27.76300048828125 27.802999496459960938 27.70999908447265625 27.673999786376953125 27.649000167846679688 27.5970001220703125 27.562000274658203125 27.506999969482421875 27.502000808715820312 27.493000030517578125 27.504999160766601562 27.478000640869140625 27.455999374389648438 27.548000335693359375 27.643999099731445312 27.725000381469726562 27.72299957275390625 27.690999984741210938 27.656000137329101562 27.65399932861328125 27.622999191284179688 27.603000640869140625 27.600000381469726562 27.534000396728515625 27.48699951171875 27.434999465942382812 27.433000564575195312 27.344999313354492188 27.384000778198242188 27.363000869750976562 27.391000747680664062 27.405000686645507812 27.4290008544921875 27.452999114990234375 27.482000350952148438 27.510000228881835938 27.517999649047851562 27.52700042724609375 27.538000106811523438 27.534000396728515625 27.547000885009765625 27.572000503540039062 27.576000213623046875 27.55699920654296875 27.552000045776367188 27.552999496459960938 27.548000335693359375 27.545000076293945312 27.511999130249023438 27.516000747680664062 27.503999710083007812 27.5 27.510999679565429688 27.523000717163085938 27.534000396728515625 27.572999954223632812 27.589000701904296875 27.579999923706054688 27.635999679565429688 27.783000946044921875 27.93000030517578125 27.948999404907226562 27.892999649047851562 27.770999908447265625 27.648000717163085938 27.525999069213867188 27.420000076293945312 27.412000656127929688 27.420999526977539062 27.427999496459960938 27.433000564575195312 27.511999130249023438 27.65200042724609375 27.79199981689453125 27.80500030517578125 27.684000015258789062 27.559000015258789062 27.516000747680664062 27.495000839233398438 27.5 27.496999740600585938 27.493000030517578125 27.489000320434570312 27.4850006103515625 27.482000350952148438 27.478000640869140625 27.493000030517578125 27.482000350952148438 27.385000228881835938 27.302999496459960938 27.253000259399414062 27.29199981689453125 27.294000625610351562 27.253000259399414062 27.197000503540039062 27.219999313354492188 0 0 0 0 0 0 0 0 0 0 0 0 0 0 0 0 0 0 0 0 0 0 0 0 0 0 0 0 0 0 0 0 0 0 0 0 0 0 0 0 0 0 0 0 0 0 0 0 0 0 0 0 0 0 0 0 0 0
